NCOLS 254
NROWS 31
XLLCORNER 3981418.40818
YLLCORNER 3407522.87082
CELLSIZE 400 
NODATA_value -9999 
35 35 35 35 35 35 35 35 35 34.640739440918 34.1501007080078 34 34 34 34 34 34 34 34 33.7343482971191 33.2437057495117 33 33 33.1177368164062 33.3708648681641 33.4078369140625 33.1547088623047 33 33 33 33 33 33 33 33 33 33 33 33 33 33 32.8805618286133 31.8992824554443 31 31 31 31 31 31 31 31 31 30.7788944244385 30.5413837432861 30.0778846740723 29.5872459411621 29.5159168243408 29.5159168243408 29.5159168243408 29.5159168243408 29.5159168243408 29.5159168243408 29.5159168243408 29.5159168243408 29.1714916229248 28.6808528900146 28.3478813171387 28.0947513580322 28 28 28 28 28.1390590667725 28.3921890258789 28.3865146636963 28.1333866119385 28 28 28 28 28.1004257202148 28.3535537719727 28.4251499176025 28.1720199584961 28 28 28 28 27.9420223236084 27.7045116424561 27.4637832641602 27.2106552124023 27.0424728393555 27.2956027984619 27.4831008911133 27.2299728393555 27 27 27 27 27 27 27 27 27 27 27 26.786075592041 26.5485649108887 26.7207775115967 26.958288192749 27 27 27.3857536315918 27.876392364502 28 28 27.8313884735107 27.5938777923584 27.345874786377 27.0927467346191 26.6891307830811 26.1984920501709 25.7078533172607 25.217212677002 25 25 24.8767013549805 24.6391906738281 24.6301517486572 24.8676624298096 25.4345245361328 26.4158020019531 27.1985416412354 27.6891803741455 28 28 28.1610984802246 28.6517372131348 28.7152462005615 27.7339668273926 26.8763446807861 26.385705947876 25.9492034912109 25.7116928100586 25.4297027587891 24.9390640258789 24.4484233856201 23.95778465271 23.5159168243408 23.5159168243408 23.5159168243408 23.5159168243408 23.5159168243408 23.5159168243408 23.5159168243408 23.9991626739502 24.4898014068604 24.5159168243408 24.5159168243408 24.5159168243408 24.5159168243408 24.5159168243408 24.5159168243408 24.9242763519287 25.4149169921875 25.5159168243408 25.5159168243408 25.3245525360107 25.0714244842529 25 25 25 25 25.314754486084 25.8053932189941 26.2960338592529 26.7866725921631 27 27 27.2585906982422 27.7492294311523 28 28 28 28 28 28 28 28 27.8350162506104 27.3443756103516 27 27 26.8724575042725 26.3818187713623 25.9473209381104 25.709810256958 25.5159168243408 25.5159168243408 25.5159168243408 25.5159168243408 25.5159168243408 25.5159168243408 25.5159168243408 25.5159168243408 25.5159168243408 25.5159168243408 25.5159168243408 25.5159168243408 25.5159168243408 25.5159168243408 25.5159168243408 25.7479190826416 26.0010471343994 26.031831741333 26.031831741333 26.2313938140869 26.4689044952393 26.7189426422119 26.9720706939697 26.8384647369385 26.585334777832 26.5159168243408 26.5159168243408 26.5159168243408 26.5159168243408 26.5159168243408 26.5159168243408 26.3611831665039 26.1080532073975 26 26 26.2624778747559 26.753116607666 27.1257572174072 27.3788871765137 27.7409515380859 28.2315902709961 28.5159168243408 28.5159168243408 28.5159168243408 28.5159168243408 28.5159168243408 28.5159168243408 28.3609867095947 27.8547286987305 27.6155128479004 28.1061515808105 28.2041091918945 26.9853210449219 25.9545021057129 25.7169914245605 25.4794807434082
35 35 35 35 35 35 35 35 35 34.640739440918 34.1501007080078 34 34 34 34 34 34 34 34 33.7343482971191 33.2437057495117 33 33 33.0018997192383 33.0059814453125 33.0065803527832 33.0024948120117 33 33 33 33 33 33 33 33 33 33 33 33 33 33 32.8805618286133 31.8992824554443 31 31 31 31 31 31 31 31 31 30.5470485687256 30.0604934692383 29.570291519165 29.0796527862549 29.008321762085 29.008321762085 29.008321762085 29.008321762085 29.008321762085 29.008321762085 29.008321762085 29.008321762085 28.6638984680176 28.1732597351074 28.0056114196777 28.0015277862549 28 28 28 28 28.0022430419922 28.006326675415 28.0062351226807 28.0021514892578 28 28 28 28 28.0016193389893 28.0057029724121 28.0068588256836 28.0027751922607 28 28 28 28 27.8812274932861 27.3946723937988 27.0074825286865 27.0033988952637 27.0006847381592 27.004768371582 27.0077934265137 27.0037097930908 27 27 27 27 27 27 27 27 27 27 27 26.5617599487305 26.0752048492432 26.4279956817627 26.9145526885986 27 27 27.3857536315918 27.876392364502 28 28 27.6545886993408 27.1680316925049 27.005578994751 27.0014953613281 26.6891307830811 26.1984920501709 25.7078533172607 25.217212677002 25 25 24.7474155426025 24.2608585357666 24.2423419952393 24.7288970947266 25.4345245361328 26.4158020019531 27.1985416412354 27.6891803741455 28 28 28.1610984802246 28.6517372131348 28.7152462005615 27.7339668273926 26.8763446807861 26.385705947876 25.895938873291 25.4093837738037 24.9221096038818 24.4314708709717 23.9408302307129 23.4501914978027 23.008321762085 23.008321762085 23.008321762085 23.008321762085 23.008321762085 23.008321762085 23.008321762085 23.491569519043 23.9822082519531 24.008321762085 24.008321762085 24.008321762085 24.008321762085 24.008321762085 24.008321762085 24.4166831970215 24.9073238372803 25.008321762085 25.008321762085 25.0052356719971 25.0011520385742 25 25 25 25 25.314754486084 25.8053932189941 26.2960338592529 26.7866725921631 27 27 27.2585906982422 27.7492294311523 28 28 28 28 28 28 28 28 27.8350162506104 27.3443756103516 27 27 26.8724575042725 26.3818187713623 25.8920841217041 25.4055290222168 25.008321762085 25.008321762085 25.008321762085 25.008321762085 25.008321762085 25.008321762085 25.008321762085 25.008321762085 25.008321762085 25.008321762085 25.008321762085 25.008321762085 25.008321762085 25.008321762085 25.008321762085 25.0120658874512 25.016149520874 25.0166454315186 25.0166454315186 25.4254627227783 25.9120178222656 26.0115985870361 26.015682220459 26.0135269165039 26.0094432830811 26.008321762085 26.008321762085 26.008321762085 26.008321762085 26.008321762085 26.008321762085 26.0058269500732 26.0017433166504 26 26 26.2624778747559 26.753116607666 27.0020294189453 27.0061130523682 27.2333583831787 27.7239971160889 28.008321762085 28.008321762085 28.008321762085 28.008321762085 28.008321762085 28.008321762085 28.005823135376 27.9976558685303 28.1231060028076 28.6137447357178 28.6544933319092 27.1866588592529 25.906795501709 25.4202404022217 24.9336853027344
35 35 35 35 35 35 35 34.8112869262695 34.5663223266602 34.3208389282227 34.0751609802246 34 34 34.1606750488281 34.4056358337402 34.4992713928223 34.4992713928223 34.357292175293 34.1123275756836 33.7343482971191 33.2437057495117 33 33 33 33 33 33 33 33 33 33 33 33 33 33 33 33 32.951488494873 32.7065277099609 32.5007286071777 32.5007286071777 32.4111061096191 31.6747894287109 31 31 31 31 31 31 31 30.7626094818115 30.5176486968994 30.0439777374268 29.553337097168 29.2813949584961 29.035717010498 28.7906513214111 28.5456886291504 28.5007286071777 28.5007286071777 28.5007286071777 28.5007286071777 28.5007286071777 28.5007286071777 28.3282661437988 28.0825881958008 28 28 28.1532669067383 28.398229598999 28.4992713928223 28.4992713928223 28.3646984100342 28.1197357177734 28 28 28 28 28 28 28 28 28 28 28 28 28 28 27.8802299499512 27.389591217041 27 27 27 27 27 27 27 27 27 27 27 27 27 27 27 27 27 26.7787189483643 26.5330410003662 26.9224662780762 27.4131050109863 27.4992713928223 27.4992713928223 27.6924285888672 27.9381065368652 28 28 27.6516895294189 27.1610488891602 27 27 26.8443393707275 26.5986614227295 26.0612640380859 25.325662612915 25 25 24.7452945709229 24.2546558380127 24.2359828948975 24.7266235351562 25.4345245361328 26.4158020019531 27.1985416412354 27.6891803741455 28 28 28.1610984802246 28.6517372131348 28.7152462005615 27.7339668273926 26.8146076202393 26.0790061950684 25.3957958221436 24.9051551818848 24.4145164489746 23.9238777160645 23.4669342041016 23.2212562561035 23 23 23 23 23 23 23 23.4832458496094 23.9738845825195 24 24 24 24 24 24 24.4083614349365 24.8990001678467 25 25 25 25 25 25 25.1664943695068 25.4114570617676 25.6568775177002 25.9025554656982 26.2960338592529 26.7866725921631 27 27 27.2585906982422 27.7492294311523 28 28 28 28 28 28 28.0917186737061 28.3366813659668 28.334285736084 27.8436470031738 27.4262447357178 27.1812839508057 26.8724575042725 26.3818187713623 25.8911800384521 25.4005393981934 25 25 24.9643630981445 24.7194004058838 24.5007286071777 24.5007286071777 24.5007286071777 24.5007286071777 24.5007286071777 24.5007286071777 24.5007286071777 24.5007286071777 24.5007286071777 24.5007286071777 24.5007286071777 24.5007286071777 24.5007286071777 24.2855587005615 24.0405979156494 24.4137058258057 24.9043464660645 25.1979351043701 25.4428958892822 25.5007286071777 25.5007286071777 25.6785106658936 25.9234733581543 25.831563949585 25.5866031646729 25.5007286071777 25.5007286071777 25.5007286071777 25.5007286071777 25.5007286071777 25.5007286071777 25.7632064819336 26.2538452148438 26.5007286071777 26.5007286071777 26.8381175994873 27.5737190246582 28 28 28 28 28 28 28 28 28.0658092498779 28.311487197876 28.1626071929932 26.6906890869141 25.4067440032959 24.9161033630371 24.425464630127
35 35 35 35 35 34.9972763061523 34.9939079284668 34.617748260498 34.1304779052734 33.9975357055664 33.9941673278809 33.9954719543457 33.9988403320312 34.3196067810059 34.8068809509277 34.9931373596191 34.9931373596191 34.7107124328613 34.2234420776367 33.7343482971191 33.2437057495117 33 33 33 33 33 33 33 33 33 33 33 33 33 33 33 33 32.9028396606445 32.4122009277344 32 32 31.9402809143066 31.4496421813965 31 31 31 31 30.9999752044678 30.9966087341309 30.9932403564453 30.5209255218506 30.033655166626 29.5432472229004 29.0526084899902 28.9969940185547 28.9936256408691 28.5738258361816 28.0831871032715 27.9931354522705 27.9931354522705 27.9931354522705 27.9931354522705 27.9956283569336 27.9989967346191 28 28 28.0022354125977 28.0056037902832 28.3117389678955 28.7990112304688 29 29 28.7304611206055 28.2398204803467 28 28 28 28 28 28 28 28 28 28 28 28 27.9990501403809 27.9956817626953 27.8741893768311 27.3869171142578 27.0006942749023 27.0040607452393 27.0062980651855 27.0029315948486 27 27 27 27 27 27 27 27 27 27 27 27.0031623840332 27.0065288543701 27.0068645477295 27.0068645477295 27.4271545410156 27.9144268035889 28 28 28.0026473999023 28.0060157775879 28.0043449401855 28.0009765625 27.6516895294189 27.1610488891602 27 27 27 27 26.4177112579346 25.4398002624512 25.0049877166748 25.0016193389893 24.7452945709229 24.2546558380127 24.2359828948975 24.7266235351562 25.4345245361328 26.4158020019531 27.1985416412354 27.6891803741455 28 28 28.1610984802246 28.6517372131348 28.7152462005615 27.7339668273926 26.7526893615723 25.7714099884033 24.8950653076172 24.404426574707 23.9137878417969 23.4231472015381 22.9995365142822 22.9961681365967 22.9931354522705 22.9931354522705 22.9931354522705 22.9931354522705 22.9932136535645 22.99658203125 22.9999485015869 23.4799289703369 23.9672012329102 23.9931354522705 23.9931354522705 23.9931354522705 23.9931354522705 23.9931354522705 23.9931354522705 24.401496887207 24.8921356201172 24.9958114624023 24.9991779327393 25 25 25 25 25.333475112915 25.8241157531738 26 26 26.2960338592529 26.7866725921631 27 27 27.2585906982422 27.7492294311523 28 28 28 28 28 28 28.1837062835693 28.6743450164795 28.8350162506104 28.3443756103516 27.8537368774414 27.3630981445312 26.8724575042725 26.3818187713623 25.8911800384521 25.4005393981934 25 25 24.9286212921143 24.4379825592041 24 24 24 24 24 24 24 24 24 24 24 23.9969139099121 23.9935455322266 23.5651264190674 23.0778541564941 23.4094181060791 23.8966903686523 24.386661529541 24.8773021697998 24.9931354522705 24.9931354522705 25.3467750549316 25.8340473175049 25.6512260437012 25.1639537811279 24.9953231811523 24.9986915588379 25 25 25 25 25.2624778747559 25.753116607666 26 26 26.4485244750977 27.4264354705811 27.9931354522705 27.9931354522705 27.9931354522705 27.9931354522705 27.9931354522705 27.9931354522705 27.9931354522705 27.9931354522705 27.9922332763672 27.9888668060303 27.6496982574463 26.1845149993896 24.9060134887695 24.4153747558594 23.9237022399902
35 35 35 35 35 34.7959136962891 34.5434989929199 34.3020172119141 34.0637893676758 33.8151779174805 33.5627632141113 33.6607360839844 33.9131469726562 34.1562576293945 34.3944816589355 34.4855422973633 34.4855422973633 34.3474655151367 34.1092414855957 33.7343482971191 33.2437057495117 33 33 33 33 33 33 33 33 33 33 33 33 33 33 33 33 32.9028396606445 32.4122009277344 32 32 31.9402809143066 31.4496421813965 31 31 31 31 30.9981708526611 30.7457580566406 30.4933452606201 30.2546806335449 30.0164527893066 29.5432472229004 29.0526084899902 28.7746524810791 28.5222396850586 28.0662326812744 27.5755939483643 27.4855422973633 27.4855422973633 27.4855422973633 27.4855422973633 27.6723651885986 27.9247779846191 28 28 28.1675605773926 28.4199733734131 28.6635093688965 28.9017372131348 29 29 28.7304611206055 28.2398204803467 28 28 28 28 28 28 28 28 28 28 28 28 27.9287528991699 27.6763401031494 27.4273891448975 27.1891632080078 27.0519847869873 27.3043975830078 27.4721031188965 27.219690322876 27 27 27 27 27 27 27 27 27 27 27 27.2369785308838 27.4893913269043 27.5144577026367 27.5144577026367 27.7199363708496 27.9581642150879 28 28 28.1984539031982 28.4508666992188 28.3256340026855 28.073221206665 27.6516895294189 27.1610488891602 27 27 27 27 26.5660037994385 25.83713722229 25.3737907409668 25.1213779449463 24.7452945709229 24.2546558380127 24.2359828948975 24.7266235351562 25.4345245361328 26.4158020019531 27.1985416412354 27.6891803741455 28 28 28.1610984802246 28.6517372131348 28.7152462005615 27.7339668273926 26.7526893615723 25.7714099884033 24.8950653076172 24.404426574707 23.9137878417969 23.4231472015381 22.9652786254883 22.7128658294678 22.4855422973633 22.4855422973633 22.4855422973633 22.4855422973633 22.4913711547852 22.7437839508057 22.9961967468262 23.2346363067627 23.4728622436523 23.4855422973633 23.4855422973633 23.4855422973633 23.4855422973633 23.4855422973633 23.4855422973633 23.8939037322998 24.38454246521 24.6859951019287 24.9384078979492 25 25 25 25 25.333475112915 25.8241157531738 26 26 26.2960338592529 26.7866725921631 27 27 27.2585906982422 27.7492294311523 28 28 28 28 28 28 28.1837062835693 28.6743450164795 28.8350162506104 28.3443756103516 27.8537368774414 27.3630981445312 26.8724575042725 26.3818187713623 25.8911800384521 25.4005393981934 25 25 24.9286212921143 24.4379825592041 24 24 24 24 24 24 24 24 24 24 24 23.7686538696289 23.5162410736084 23.2762889862061 23.0380630493164 23.2001628875732 23.4383907318115 23.8790683746338 24.3697090148926 24.4855422973633 24.4855422973633 24.6584358215332 24.8966636657715 24.8072814941406 24.569055557251 24.6494693756104 24.9018821716309 25 25 25 25 25.2624778747559 25.753116607666 26 26 26.3342990875244 27.0631637573242 27.4855422973633 27.4855422973633 27.4855422973633 27.4855422973633 27.4855422973633 27.4855422973633 27.4855422973633 27.4855422973633 27.4179286956787 27.1655158996582 26.748929977417 25.7818374633789 24.9060134887695 24.4153747558594 23.8472938537598
35.0012474060059 35 35 34.9908409118652 34.9800224304199 34.5899963378906 34.1101760864258 33.9916648864746 33.9808464050293 33.6266136169434 33.1467933654785 33.3330307006836 33.8128509521484 33.9779510498047 33.9779510498047 33.9779510498047 33.9779510498047 33.9779510498047 33.9779510498047 33.7240104675293 33.2550086975098 33.0166053771973 33.005786895752 33 33 33 33 32.995792388916 32.9849739074707 32.9779510498047 32.9779510498047 32.9779510498047 32.9779510498047 32.9779510498047 32.9779510498047 32.9779510498047 32.9779510498047 32.8829307556152 32.4031105041504 32 32 31.9402809143066 31.4496421813965 31 31 31 31 30.9965229034424 30.5167026519775 30.0368824005127 30.0115661621094 30.0007476806641 29.5331764221191 29.031717300415 28.5495777130127 28.0697574615479 27.5806903839111 27.090051651001 27 27 27 27 27.3631458282471 27.8537845611572 28 28 28.3257026672363 28.8163433074951 29 29 29 29 28.7364044189453 28.2565841674805 28.0165195465088 28.0057010650635 27.9948825836182 27.9840641021729 27.9826545715332 27.9934730529785 28 28 28 28 28 28 27.8645629882812 27.3847427368164 27.0220508575439 27.0220508575439 27.12087059021 27.6006908416748 27.9176731109619 27.4270343780518 27 27 27 27 27 27 27.0001640319824 27.0109825134277 27.021800994873 27.0220508575439 27.0220508575439 27.4826889038086 27.9733276367188 28.0123062133789 28.0014877319336 28 28 28 28 28.3857536315918 28.876392364502 28.6329669952393 28.1423282623291 27.6516895294189 27.1610488891602 27 27 27 27 26.7078533172607 26.217212677002 25.7265739440918 25.2359352111816 24.7509117126465 24.2710914611816 24.2528305053711 24.7326507568359 25.4345245361328 26.4158020019531 27.1985416412354 27.6891803741455 28 28 28.1575450897217 28.6373672485352 28.6963348388672 27.7258758544922 26.7526893615723 25.7714099884033 24.8927516937256 24.3912944793701 23.8936367034912 23.4138164520264 22.9325084686279 22.4418697357178 22 22 22 22 22.0113277435303 22.5019664764404 22.9926071166992 23 23 23 23 23 23 23 23 23.4083614349365 23.8990001678467 24.3896389007568 24.8802795410156 25 25 25 25 25.333475112915 25.8241157531738 26.0069408416748 26.0177593231201 26.3115558624268 26.7913761138916 27 27 27.2528896331787 27.7327098846436 27.9779491424561 27.9779491424561 27.9779491424561 27.9779491424561 27.9824123382568 27.9932327270508 28.1837062835693 28.6743450164795 28.8386535644531 28.3588333129883 27.8725624084473 27.3711032867432 26.8724575042725 26.3818187713623 25.8911800384521 25.4005393981934 25 25 24.9301948547363 24.4503746032715 24.0220508575439 24.0220508575439 24.0213031768799 24.0104827880859 24 24 24 24 24 24 24 23.5503101348877 23.0596714019775 22.9904975891113 22.9796772003174 22.98703956604 22.9978580474854 23.3935260772705 23.8841648101807 24 24 24 24 24 24 24.3116149902344 24.7914352416992 24.9779491424561 24.9779491424561 24.9779491424561 24.9779491424561 25.2462139129639 25.747673034668 26 26 26.2151107788086 26.6841125488281 26.9604473114014 26.9712677001953 26.9779491424561 26.9779491424561 26.9779491424561 26.9779491424561 26.9779491424561 26.9779491424561 26.8465213775635 26.3558807373047 25.8652420043945 25.3746032714844 24.8839626312256 24.3933238983154 23.7521553039551
35.0299224853516 35 35 34.779972076416 34.5201110839844 34.283763885498 34.0529899597168 33.7998046875 33.5399398803711 33.3013763427734 33.0706024169922 33.1601753234863 33.3909492492676 33.4703559875488 33.4703559875488 33.4703559875488 33.4703559875488 33.4703559875488 33.4703559875488 33.4861068725586 33.515193939209 33.3988571166992 33.1389923095703 33 33 33 33 32.8989601135254 32.6390953063965 32.4703559875488 32.4703559875488 32.4703559875488 32.4703559875488 32.4703559875488 32.4703559875488 32.4703559875488 32.4703559875488 32.4246559143066 32.1938819885254 32 32 31.9402809143066 31.4496421813965 31 31 31 31 30.998327255249 30.7675533294678 30.5367774963379 30.2778129577637 30.0179481506348 29.3013324737549 28.5508289337158 28.2643260955811 28.0335502624512 27.5806903839111 27.090051651001 27 27 27 27 27.3631458282471 27.8537845611572 28 28 28.3257026672363 28.8163433074951 29 29 29 29 28.8732204437256 28.6424446105957 28.3967990875244 28.1369361877441 27.8770713806152 27.6172065734863 27.5833683013916 27.8432331085205 28 28 28 28 28 28 27.9348602294922 27.7040843963623 27.5296440124512 27.5296440124512 27.5771732330322 27.8079471588135 27.9176731109619 27.4270343780518 27 27 27 27 27 27 27.0039405822754 27.2638053894043 27.5236701965332 27.5296440124512 27.5296440124512 27.9902820587158 28.480920791626 28.2955856323242 28.0357208251953 28 28 28 28 28.3857536315918 28.876392364502 28.6329669952393 28.1423282623291 27.6516895294189 27.1610488891602 27 27 27 27 26.7078533172607 26.217212677002 25.7265739440918 25.2359352111816 24.8801975250244 24.6494235992432 24.6406402587891 24.8714160919189 25.4345245361328 26.4158020019531 27.1985416412354 27.6891803741455 28 28 28.0757732391357 28.3065490722656 28.2610111236572 27.5395965576172 26.7526893615723 25.7714099884033 24.8394870758057 24.0889835357666 23.4298057556152 23.1990299224854 22.9325084686279 22.4418697357178 22 22 22 22 22.0113277435303 22.5019664764404 22.9926071166992 23 23 23 23 23 23 23 23 23.4083614349365 23.8990001678467 24.3896389007568 24.8802795410156 25 25 25 25 25.333475112915 25.8241157531738 26.1667079925537 26.4265727996826 26.6688842773438 26.8996601104736 27 27 27.1216297149658 27.3524055480957 27.4703559875488 27.4703559875488 27.4703559875488 27.4703559875488 27.5775699615479 27.8374347686768 28.1837062835693 28.6743450164795 28.9223976135254 28.6916236877441 28.3059139251709 27.5554103851318 26.8724575042725 26.3818187713623 25.8911800384521 25.4005393981934 25 25 24.9664268493652 24.7356510162354 24.5296440124512 24.5296440124512 24.5116691589355 24.2518062591553 24 24 24 24 24 24 24 23.5503101348877 23.0596714019775 22.7717399597168 22.5118751525879 22.68869972229 22.9485645294189 23.3935260772705 23.8841648101807 24 24 24 24 24 24 24.1498756408691 24.3806495666504 24.4703559875488 24.4703559875488 24.4703559875488 24.4703559875488 24.8718528747559 25.6223564147949 26 26 25.9866580963135 25.9575691223145 26.0499839782715 26.3098487854004 26.4703559875488 26.4703559875488 26.4703559875488 26.4703559875488 26.4703559875488 26.4703559875488 26.3389282226562 25.8482875823975 25.3576488494873 24.8670101165771 24.3763694763184 23.8857307434082 23.2445621490479
35.0543899536133 35 35 34.5691070556641 34.0601997375488 33.962760925293 33.962760925293 33.5847816467285 33.0941429138184 32.962760925293 32.962760925293 32.950080871582 32.931812286377 32.9375076293945 32.9557800292969 32.962760925293 32.962760925293 32.9733505249023 32.9916229248047 33.2656517028809 33.7562942504883 33.7530670166016 33.2624282836914 33 33 32.9921989440918 32.9739303588867 32.7790985107422 32.3067283630371 32 32 32 32 32 32 32 32 31.9963817596436 31.9781112670898 31.9627628326416 31.9627628326416 31.9052677154541 31.432897567749 31 31 31 31 31 31 31 30.5245265960693 30.0338878631592 29.0864963531494 28.1052169799805 27.9836883544922 27.9654197692871 27.5590667724609 27.0866985321045 27 27 27 27 27.3631458282471 27.8537845611572 28 28 28.3257026672363 28.8163433074951 29 29 29 29 29 29 28.7491817474365 28.2585430145264 27.7679023742676 27.2772636413574 27.2133750915527 27.7040157318115 28 28 28 28 27.9941463470459 27.9758758544922 27.9679203033447 27.9861888885498 28 28 28 28 27.9176731109619 27.4270343780518 27 27 27 27 27 27 27.0074424743652 27.4980812072754 27.9887199401855 28 28 28.4606380462646 28.9512786865234 28.5745391845703 28.1021690368652 28.0214786529541 28.0032081604004 28.0150623321533 28.0333309173584 28.4086265563965 28.8809947967529 28.6329669952393 28.1423282623291 27.6516895294189 27.1610488891602 27 27 27 27 26.7078533172607 26.217212677002 25.7265739440918 25.2359352111816 25 25 25 25 25.4426136016846 26.4421634674072 27.2283840179443 27.7007541656494 28 28 28 28 27.8576240539551 27.3669834136963 26.7526893615723 25.7714099884033 24.7901306152344 23.8088531494141 23 23 22.9325084686279 22.4418697357178 22 22 22.0011196136475 22.0193881988525 22.0481433868408 22.5205135345459 22.9928817749023 23.017993927002 23.0362644195557 23.0199394226074 23.0016689300537 23 23 23 23 23.4083614349365 23.8990001678467 24.3896389007568 24.8802795410156 25 25 25 25 25.333475112915 25.8241157531738 26.314754486084 26.8053932189941 26.988977432251 26.9707069396973 26.9627628326416 26.9627628326416 26.9627628326416 26.9627628326416 26.9716949462891 26.9899654388428 27 27 27.1948890686035 27.6672592163086 28.1464691162109 28.6371078491211 28.9627628326416 28.9627628326416 28.6702365875244 27.6889572143555 26.8399696350098 26.3676013946533 25.8911800384521 25.4005393981934 25 25 25 25 25 25 24.9673271179199 24.4949588775635 24.0366706848145 24.0184001922607 24.000129699707 24 24 24 24 23.5503101348877 23.0596714019775 22.5690307617188 22.0783920288086 22.4122467041016 22.9028873443604 23.3935260772705 23.8841648101807 24 24 23.9867401123047 23.968469619751 23.9627628326416 23.9627628326416 23.9627628326416 23.9627628326416 23.9739303588867 23.9922008514404 24 24 24.5151805877686 25.4781894683838 25.9627628326416 25.9627628326416 25.7377281188965 25.2470893859863 25.1613941192627 25.6337623596191 25.9394969940186 25.9760360717773 26 26 25.9944095611572 25.9761390686035 25.831335067749 25.3406944274902 24.8500556945801 24.3594169616699 23.8687763214111 23.378137588501 22.7397708892822
35.0257148742676 35 35 34.3582420349121 33.6002883911133 33.4551696777344 33.4551696777344 33.0771903991699 32.5865478515625 32.4551696777344 32.4551696777344 32.2696342468262 32.0023193359375 32.0856742858887 32.3529891967773 32.4551696777344 32.4551696777344 32.6101036071777 32.8774223327637 33.2656517028809 33.7562942504883 33.7530670166016 33.2624282836914 33 33 32.8858642578125 32.6185493469238 32.3683395385742 32.1450119018555 32 32 32 32 32 32 32 32 31.9470634460449 31.6797485351562 31.4551696777344 31.4551696777344 31.4279880523682 31.204662322998 31 31 31 31 31 31 31 30.5245265960693 30.0338878631592 29.0864963531494 28.1052169799805 27.7613468170166 27.4940319061279 27.2643127441406 27.0409889221191 27 27 27 27 27.3631458282471 27.8537845611572 28 28 28.3257026672363 28.8163433074951 29 29 29 29 29 29 28.7491817474365 28.2585430145264 27.7679023742676 27.2772636413574 27.2133750915527 27.7040157318115 28 28 28 28 27.9143466949463 27.6470317840576 27.5306224822998 27.7979393005371 28 28 28 28 27.9176731109619 27.4270343780518 27 27 27 27 27 27 27.0074424743652 27.4980812072754 27.9887199401855 28 28 28.4606380462646 28.9512786865234 28.7988529205322 28.5755290985107 28.3142604827881 28.0469455718994 28.2203693389893 28.4876861572266 28.7204132080078 28.9437370300293 28.6329669952393 28.1423282623291 27.6516895294189 27.1610488891602 27 27 27 27 26.7078533172607 26.217212677002 25.7265739440918 25.2359352111816 25 25 25 25 25.5528945922852 26.8014888763428 27.6352005004883 27.8585243225098 28 28 28 28 27.8576240539551 27.3669834136963 26.7526893615723 25.7714099884033 24.7901306152344 23.8088531494141 23 23 22.9325084686279 22.4418697357178 22 22 22.0163726806641 22.2836875915527 22.5499858856201 22.7733116149902 22.9966354370117 23.2632865905762 23.5306034088135 23.2917423248291 23.0244274139404 23 23 23 23 23.4083614349365 23.8990001678467 24.3896389007568 24.8802795410156 25 25 25 25 25.333475112915 25.8241157531738 26.314754486084 26.8053932189941 26.8387126922607 26.5713958740234 26.4551696777344 26.4551696777344 26.4551696777344 26.4551696777344 26.5858573913574 26.8531723022461 27 27 27.0921382904053 27.3154621124268 27.6388759613037 28.1295146942139 28.4551696777344 28.4551696777344 28.1626434326172 27.1813640594482 26.3971157073975 26.173791885376 25.8911800384521 25.4005393981934 25 25 25 25 25 25 24.9845542907715 24.7612285614014 24.5365409851074 24.2692260742188 24.0019111633301 24 24 24 24 23.5503101348877 23.0596714019775 22.5690307617188 22.0783920288086 22.4122467041016 22.9028873443604 23.3935260772705 23.8841648101807 24 24 23.8059940338135 23.5386791229248 23.4551696777344 23.4551696777344 23.4551696777344 23.4551696777344 23.6185741424561 23.8858909606934 24 24 24.3819484710693 25.0959129333496 25.4551696777344 25.4551696777344 25.2301349639893 24.7394962310791 24.5490779876709 24.7724018096924 25.1147499084473 25.6493816375732 26 26 25.9181938171387 25.65087890625 25.3237419128418 24.833101272583 24.3424625396729 23.8518238067627 23.3611831665039 22.8705444335938 22.2703819274902
34.9505386352539 34.9475746154785 34.9475746154785 34.1385078430176 33.1829490661621 32.9792022705078 32.953483581543 32.5695953369141 32.0789566040039 31.9664096832275 31.992130279541 31.6594619750977 31.1688232421875 31.3218173980713 31.8124561309814 32.0158882141113 32.0416107177734 32.321891784668 32.786808013916 33.2517280578613 33.7166442871094 33.7006454467773 33.2100067138672 32.9475746154785 32.9475746154785 32.7490692138672 32.2841491699219 31.9899997711182 31.9642772674561 31.9475765228271 31.9475765228271 31.9475765228271 31.9475765228271 31.9546318054199 31.980354309082 31.9939250946045 31.968204498291 31.8555088043213 31.3905906677246 31 31 31 31 31 31 31 31 31 31 31 30.5245265960693 30.0338878631592 29.0864963531494 28.1052169799805 27.5619697570801 27.0713291168213 27 27 27 27 27 27 27.3631458282471 27.8537845611572 28 28 28.3257026672363 28.8163433074951 29 29 29 29 29 29 28.7491817474365 28.2585430145264 27.7679023742676 27.2772636413574 27.2133750915527 27.7040157318115 28 28 28 28 27.8427886962891 27.3521480560303 27.1312294006348 27.5961475372314 27.9475765228271 27.9475765228271 27.9528732299805 27.9785938262939 27.9176731109619 27.4270343780518 27 27 27 27 27 27 27.0074424743652 27.4980812072754 27.9887199401855 28 28 28.4606380462646 28.9512786865234 29 29 28.5989894866943 28.1340713500977 28.4568977355957 28.9475383758545 29.0524234771729 29.0524234771729 28.6469097137451 28.1048278808594 27.617525100708 27.1526069641113 27.0172786712646 27.0429992675781 27.0361270904541 27.0104064941406 26.7078533172607 26.217212677002 25.7265739440918 25.2359352111816 25 25 25.0123710632324 25.0380916595459 25.6814308166504 27.1019058227539 27.9579849243164 27.9837055206299 28 28 27.9915542602539 27.9658336639404 27.8051986694336 27.3145599365234 26.7067470550537 25.7511901855469 24.7901306152344 23.8088531494141 23 23 22.9360466003418 22.4711284637451 22.0524234771729 22.0524234771729 22.0808982849121 22.5458164215088 23 23 23 23.4832458496094 23.9738845825195 23.5598278045654 23.0949096679688 23.0524234771729 23.0524234771729 23.0300350189209 23.0043125152588 23.4083614349365 23.8990001678467 24.3896389007568 24.8802795410156 25 25 25 25 25.333475112915 25.8241157531738 26.2982540130615 26.7631721496582 26.6670627593994 26.2021446228027 25.9854621887207 25.9597415924072 25.9475765228271 25.9475765228271 26.1874465942383 26.6780853271484 26.9475765228271 26.9475765228271 26.9475765228271 26.9475765228271 27.1312828063965 27.6219215393066 27.9562244415283 27.9819469451904 27.7074737548828 26.7261943817139 25.9933128356934 25.9675922393799 25.8444595336914 25.3795413970947 25 25 25 25 25 25 25 25 24.9847850799561 24.4941463470459 24.0035076141357 24 24 24 24 23.5738849639893 23.1089668273926 22.6214542388916 22.1308155059814 22.4430599212646 22.9079780578613 23.372896194458 23.8378143310547 23.9475765228271 23.9475765228271 23.6101589202881 23.1452407836914 23 23 23 23 23.2841968536377 23.7491149902344 23.9623184204102 23.9880390167236 24.2487163543701 24.7136344909668 24.9347972869873 24.9090766906738 24.6819152832031 24.2169971466064 23.9475765228271 23.9475765228271 24.3227596282959 25.3040390014648 25.956428527832 25.9821510314941 25.8498497009277 25.3592109680176 24.8685722351074 24.3779315948486 23.8872928619385 23.3966541290283 22.9060134887695 22.4153747558594 21.8534164428711
34.471622467041 34.4399833679199 34.4399833679199 33.8417816162109 33.1352691650391 32.7778396606445 32.5030746459961 32.0620040893555 31.5713634490967 31.6411743164062 31.9159412384033 31.6594619750977 31.1688232421875 31.3218173980713 31.8124561309814 32.1697387695312 32.4445037841797 32.6851387023926 32.901008605957 33.1168823242188 33.3327560424805 33.1930503845215 32.7024116516113 32.4399833679199 32.4399833679199 32.3478126525879 32.1319389343262 31.8931674957275 31.6184005737305 31.4399833679199 31.4399833679199 31.4399833679199 31.4399833679199 31.5153636932373 31.7901306152344 31.9351043701172 31.6603374481201 31.3972339630127 31.181360244751 31 31 31 31 31 31 31 31 31 31 31 30.5245265960693 30.0338878631592 29.0864963531494 28.1052169799805 27.5619697570801 27.0713291168213 27 27 27 27 27 27 27.3631458282471 27.8537845611572 28 28 28.3257026672363 28.8163433074951 29 29 29 29 29 29 28.7491817474365 28.2585430145264 27.7679023742676 27.2772636413574 27.2133750915527 27.7040157318115 28 28 28 28 27.8427886962891 27.3521480560303 27.0609340667725 27.2768058776855 27.4399833679199 27.4399833679199 27.4965705871582 27.7713375091553 27.9176731109619 27.4270343780518 27 27 27 27 27 27 27.0074424743652 27.4980812072754 27.9887199401855 28 28 28.4606380462646 28.9512786865234 29 29 28.8138008117676 28.5979290008545 28.9644908905029 29.4551315307617 29.5600166320801 29.5600166320801 28.7818965911865 27.7417240142822 27.2867317199707 27.0708599090576 27.1845760345459 27.459342956543 27.3859252929688 27.1111583709717 26.7078533172607 26.217212677002 25.7265739440918 25.2359352111816 25 25 25.1321544647217 25.4069213867188 25.9684619903564 26.89084815979 27.5511684417725 27.8259353637695 28 28 27.909782409668 27.6350154876709 27.2976055145264 26.8069667816162 26.2619209289551 25.5554084777832 24.7901306152344 23.8088531494141 23 23 22.9703044891357 22.7544326782227 22.5600166320801 22.5600166320801 22.5732383728027 22.7891120910645 23 23 23 23.4832458496094 23.9738845825195 23.7956161499023 23.5797443389893 23.5600166320801 23.5600166320801 23.3208446502686 23.0460777282715 23.4083614349365 23.8990001678467 24.3896389007568 24.8802795410156 25 25 25 25 25.333475112915 25.8241157531738 26.1384868621826 26.3543586730957 26.3097324371338 26.0938606262207 25.8446998596191 25.5699348449707 25.4399833679199 25.4399833679199 25.6798515319824 26.1704921722412 26.4399833679199 26.4399833679199 26.4399833679199 26.4399833679199 26.6236877441406 27.1143283843994 27.532377243042 27.8071441650391 27.7074737548828 26.7261943817139 25.9285736083984 25.65380859375 25.3921031951904 25.1762313842773 25 25 25 25 25 25 25 25 24.9847850799561 24.4941463470459 24.0035076141357 24 24 24 24 23.8021450042725 23.5862712860107 23.1290493011475 22.6384086608887 22.7413997650146 22.9572715759277 23.1731452941895 23.3890171051025 23.4399833679199 23.4399833679199 23.2833118438721 23.067440032959 23 23 23 23 23.1319599151611 23.3478317260742 23.5974578857422 23.8722248077393 24.1154861450195 24.3313579559326 24.3034744262695 24.0287094116211 23.7809543609619 23.5650806427002 23.4399833679199 23.4399833679199 23.8151664733887 24.7964458465576 25.534553527832 25.8093204498291 25.8498497009277 25.3592109680176 24.8685722351074 24.3779315948486 23.8872928619385 23.3966541290283 22.9060134887695 22.4153747558594 21.8916206359863
33.988883972168 33.9323883056641 33.9323883056641 33.545051574707 33.0875854492188 32.6032981872559 32.1126594543457 31.6220188140869 31.1313800811768 31.3349704742432 31.7924365997314 31.614875793457 31.1574077606201 31.3000583648682 31.7575263977051 32.2354850769043 32.7261238098145 32.9323883056641 32.9323883056641 32.9323883056641 32.9323883056641 32.7021522521973 32.244686126709 31.9845714569092 31.9513988494873 31.9323902130127 31.9323902130127 31.7545204162598 31.2970523834229 31 31 31 31 31.1255035400391 31.5829696655273 31.8243408203125 31.3668746948242 31 31 30.9946956634521 30.9615249633789 30.9323902130127 30.9323902130127 30.9323902130127 30.9323902130127 30.933895111084 30.9670677185059 31 31 31 30.5245265960693 30.0338878631592 29.0864963531494 28.1052169799805 27.5619697570801 27.0713291168213 27 27 27 27 27 27 27.3631458282471 27.8537845611572 28 28 28.3257026672363 28.8163433074951 29 29 29.0194892883301 29.052661895752 29.0493869781494 29.0162143707275 28.7491817474365 28.2585430145264 27.7679023742676 27.2772636413574 27.2133750915527 27.7040157318115 28 28 27.9881057739258 27.9549331665039 27.7858066558838 27.3283405303955 27 27 27 27 27.0942153930664 27.5516834259033 27.8556289672852 27.3981628417969 27 27 27 27 27 27 27.0074424743652 27.4980812072754 27.9887199401855 28.0324096679688 28.0655822753906 28.4971046447754 28.9545726776123 29 29 28.9713878631592 28.9382152557373 29.2821712493896 29.7064647674561 29.7971687316895 29.7971687316895 28.7705173492432 27.3981170654297 26.9764499664307 26.9432773590088 27.2619781494141 27.7526187896729 27.6425399780273 27.1850719451904 26.7078533172607 26.217212677002 25.7265739440918 25.2359352111816 25 25 25.2359828948975 25.7266235351562 26.2172622680664 26.7079010009766 27.1851177215576 27.6425838470459 27.9202308654785 27.8870601654053 27.7145729064941 27.2571048736572 26.7900123596191 26.299373626709 25.8170948028564 25.3596267700195 24.7901306152344 23.8088531494141 23 23 23 23 23 23 23.0020313262939 23.0352039337158 23.0676097869873 23.0676097869873 23.0676097869873 23.5181846618652 23.9756507873535 24 24 24 24 23.6017932891846 23.1443252563477 23.4483623504639 23.9058284759521 24.3896389007568 24.8802795410156 25 25 25 25 25.333475112915 25.8241157531738 26 26 25.9799842834473 25.946813583374 25.6550769805908 25.1644382476807 24.9323902130127 24.9323902130127 25.1722583770752 25.662899017334 25.9323902130127 25.9323902130127 25.9460754394531 25.979248046875 26.1837062835693 26.6743450164795 27.1649837493896 27.6556243896484 27.7074737548828 26.7261943817139 25.8724575042725 25.3818187713623 25 25 25 25 25 25 25 25 25 25 24.9858150482178 24.5283470153809 24.0708808898926 24.0676097869873 24.0676097869873 24.0676097869873 24.0676097869873 24.0372066497803 24.0040340423584 23.5690307617188 23.0783920288086 23 23 23 23 23 23 23 23 23 23 23 23 23 23 23.2811985015869 23.7718372344971 24 24 23.7562446594238 23.265604019165 23 23 23 23 23.3751850128174 24.3564624786377 25.1574535369873 25.6149196624756 25.7923908233643 25.334924697876 24.8685722351074 24.3779315948486 23.8872928619385 23.3966541290283 22.9060134887695 22.4153747558594 21.9247360229492
33.4812927246094 33.4247970581055 33.4247970581055 33.2483253479004 33.0399055480957 32.6032981872559 32.1126594543457 31.6220188140869 31.1313800811768 31.1526126861572 31.3610343933105 31.2801361083984 31.0717144012451 31.1367073059082 31.3451290130615 31.7278919219971 32.2185325622559 32.4247970581055 32.4247970581055 32.4247970581055 32.4247970581055 32.3199005126953 32.1114768981934 31.8687324523926 31.5865154266357 31.4247970581055 31.4247970581055 31.3437595367432 31.1353378295898 31 31 31 31 31.0571784973145 31.2656002044678 31.3755702972412 31.1671485900879 31 31 30.9548816680908 30.6726627349854 30.4247970581055 30.4247970581055 30.4247970581055 30.4247970581055 30.4376106262207 30.7198276519775 31 31 31 30.5245265960693 30.0338878631592 29.0864963531494 28.1052169799805 27.5619697570801 27.0713291168213 27 27 27 27 27 27 27.3631458282471 27.8537845611572 28 28 28.3257026672363 28.8163433074951 29 29 29.165807723999 29.4480266571045 29.4201641082764 29.1379451751709 28.7491817474365 28.2585430145264 27.7679023742676 27.2772636413574 27.2133750915527 27.7040157318115 28 28 27.8988018035889 27.616584777832 27.3580131530762 27.1495914459229 27 27 27 27 27.0429248809814 27.2513465881348 27.3898239135742 27.1814022064209 27 27 27 27 27 27 27.0074424743652 27.4980812072754 27.9887199401855 28.2757301330566 28.5579471588135 28.770881652832 28.9793033599854 29 29 28.7565765380859 28.4743576049805 28.3639602661133 28.2901649475098 28.2743892669678 28.2743892669678 27.8066463470459 27.1813812255859 26.7996501922607 26.5174331665039 26.7543849945068 27.2450256347656 27.2927398681641 27.0843181610107 26.7078533172607 26.217212677002 25.7265739440918 25.2359352111816 25 25 25.2359828948975 25.7266235351562 26.2172622680664 26.7079010009766 27.0843391418457 27.292760848999 27.3213634490967 27.0391464233398 26.7811584472656 26.5727367401123 26.2824192047119 25.7917804718018 25.3722686767578 25.1638450622559 24.7901306152344 23.8088531494141 23 23 23 23 23 23 23.0172843933105 23.2995014190674 23.5752029418945 23.5752029418945 23.5752029418945 23.7804851531982 23.9889068603516 24 24 24 24 23.8185768127441 23.6101551055908 23.7486743927002 23.9570960998535 24.3896389007568 24.8802795410156 25 25 25 25 25.333475112915 25.8241157531738 26 26 25.829719543457 25.5475025177002 25.1474838256836 24.6568450927734 24.4247970581055 24.4247970581055 24.664665222168 25.1553058624268 25.4247970581055 25.4247970581055 25.5412330627441 25.823450088501 26.1837062835693 26.6743450164795 27.1649837493896 27.6556243896484 27.7074737548828 26.7261943817139 25.8724575042725 25.3818187713623 25 25 25 25 25 25 25 25 25 25 24.993537902832 24.7851161956787 24.5766944885254 24.5752029418945 24.5752029418945 24.5752029418945 24.5752029418945 24.3165397644043 24.0343227386475 23.5690307617188 23.0783920288086 23 23 23 23 23 23 23 23 23 23 23 23 23 23 23.2811985015869 23.7718372344971 24 24 23.7562446594238 23.265604019165 23 23 23 23 23.3751850128174 24.3564624786377 25.0717353820801 25.2801570892334 25.3610134124756 25.1525917053223 24.8685722351074 24.3779315948486 23.8872928619385 23.3966541290283 22.9060134887695 22.4153747558594 21.9247360229492
33.0564956665039 32.964054107666 32.9234313964844 32.9172019958496 32.9172019958496 32.5205001831055 32.0298614501953 31.5705184936523 31.1205024719238 31 31 31 31 31 31 31.2779998779297 31.7280158996582 31.9172019958496 31.9172019958496 31.9172019958496 31.9172019958496 31.9172019958496 31.9172019958496 31.7267818450928 31.3173904418945 31.0654525756836 31.0248279571533 31 31 31 31 31 31 31 31 31 31 31 31 30.9215602874756 30.4309196472168 30 30 30 30 30.0222759246826 30.5129165649414 31 31 31 30.5245265960693 30.0338878631592 29.0864963531494 28.1052169799805 27.5982360839844 27.1482219696045 27.0480804443359 27.0074558258057 26.966833114624 26.9262084960938 26.9172019958496 26.9172019958496 27.3104152679443 27.8416786193848 28 28 28.3257026672363 28.8163433074951 29 29 29.2643928527832 29.7144088745117 29.6476631164551 29.1570243835449 28.6663856506348 28.175745010376 27.7043228149414 27.2543067932129 27.1957092285156 27.6457252502441 27.9333190917969 27.9739437103271 27.8240661621094 27.3334274291992 27 27 27 27 27 27 27 27 27 27 27 27 27 27 27 27 27.008674621582 27.5805606842041 28.1524467468262 28.5655746459961 28.974967956543 29 29 29 29 28.5417652130127 28.0105018615723 27.5127277374268 27.0220890045166 26.9172019958496 26.9172019958496 26.8868141174316 26.8461894989014 26.5149345397949 26.0649185180664 26.2467918395996 26.7374324798584 26.9172019958496 26.9172019958496 26.6250553131104 26.1344165802002 25.6664161682129 25.2164001464844 25 25 25.2359828948975 25.7266235351562 26.2352504730225 26.7665138244629 27.049919128418 26.9686737060547 26.7373828887939 26.2467441558838 25.9172019958496 25.9172019958496 25.7866134643555 25.3365993499756 25 25 24.7988204956055 23.8581638336182 23.0827980041504 23.0827980041504 23.0827980041504 23.0827980041504 23.0827980041504 23.0827980041504 23.1128463745117 23.6034851074219 24.0827980041504 24.0827980041504 24.0827980041504 24.0427856445312 24.0021629333496 24 24 24 24 24 24 24 24 24.3896389007568 24.8802795410156 25 25 25.0291614532471 25.0697841644287 25.3886623382568 25.8386783599854 25.9739398956299 25.9333152770996 25.645679473877 25.1956634521484 24.699728012085 24.1684646606445 23.9172019958496 23.9172019958496 24.1570720672607 24.6477127075195 24.9172019958496 24.9172019958496 25.1363906860352 25.6676540374756 26.1684951782227 26.6185111999512 27.0958480834961 27.6271114349365 27.7074737548828 26.7261943817139 25.8724575042725 25.3818187713623 25 25 25 25 25.0059089660645 25.0465335845947 25.0784378051758 25.0378131866455 25 25 25 25 25 25 25 25 25 24.5503101348877 24.0596714019775 23.5690307617188 23.0783920288086 23 23 23 23 23 23 22.9705181121826 22.9298934936523 22.9172019958496 22.9172019958496 22.9435863494873 22.9842090606689 23 23 23.2579154968262 23.7079315185547 23.9172019958496 23.9172019958496 23.6734466552734 23.1828079223633 22.9172019958496 22.9172019958496 22.9172019958496 22.9172019958496 23.27685546875 24.2175102233887 24.8623695373535 24.9436168670654 25 25 24.8685722351074 24.3779315948486 23.8966255187988 23.4466094970703 22.9888114929199 22.4981727600098 22.0137634277344
33.0564956665039 32.7436866760254 32.4540176391602 32.409610748291 32.409610748291 32.0129089355469 31.5222682952881 31.2547855377197 31.0538139343262 31 31 31 31 31 31 31.1241512298584 31.3251209259033 31.4096088409424 31.4096088409424 31.4096088409424 31.4096088409424 31.4096088409424 31.4096088409424 31.4508647918701 31.5395641326904 31.4667091369629 31.1770420074463 31 31 31 31 31 31 31 31 31 31 31 31 30.9215602874756 30.4309196472168 30 30 30 30 30.0222759246826 30.5129165649414 31 31 31 30.5245265960693 30.0338878631592 29.0864963531494 28.1052169799805 27.82057762146 27.619607925415 27.3428344726562 27.053165435791 26.7634963989258 26.4738273620605 26.4096088409424 26.4096088409424 26.9871520996094 27.7674617767334 28 28 28.3257026672363 28.8163433074951 29 29 29.1180744171143 29.3190441131592 29.1400699615479 28.6494312286377 28.1587905883789 27.6681518554688 27.3145408630371 27.1135692596436 27.0874004364014 27.2883720397949 27.5245323181152 27.8141994476318 27.8240661621094 27.3334274291992 27 27 27 27 27 27 27 27 27 27 27 27 27 27 27 27 27.016227722168 28.0862064361572 29.1561832427979 29.0941219329834 29.0054244995117 29 29 29 29 28.3269538879395 27.5466442108154 27.0051345825195 26.5144958496094 26.4096088409424 26.4096088409424 26.1929168701172 25.903247833252 25.6765480041504 25.4755764007568 25.7391986846924 26.2298393249512 26.4096088409424 26.4096088409424 26.1174621582031 25.626823425293 25.2976112365723 25.0966415405273 25 25 25.2359828948975 25.7266235351562 26.345531463623 27.1258392333984 27.35595703125 26.7766189575195 26.2297897338867 25.7391510009766 25.4096088409424 25.4096088409424 25.3512897491455 25.1503200531006 25 25 24.8520832061768 24.160472869873 23.5903911590576 23.5903911590576 23.5903911590576 23.5903911590576 23.5903911590576 23.5903911590576 23.6204395294189 24.1110782623291 24.5903911590576 24.5903911590576 24.5903911590576 24.3050861358643 24.015417098999 24 24 24 24 24 24 24 24 24.3896389007568 24.8802795410156 25 25 25.2079334259033 25.4976024627686 25.7269859313965 25.9279556274414 25.814172744751 25.5245037078857 25.28835105896 25.087381362915 24.5589656829834 23.778657913208 23.4096088409424 23.4096088409424 23.6494789123535 24.1401176452637 24.4096088409424 24.4096088409424 24.7315483093262 25.5118560791016 26.0752468109131 26.2762184143066 26.6719989776611 27.4523067474365 27.7074737548828 26.7261943817139 25.8724575042725 25.3818187713623 25 25 25 25 25.0421409606934 25.3318099975586 25.5593013763428 25.2696342468262 25 25 25 25 25 25 25 25 25 24.5503101348877 24.0596714019775 23.5690307617188 23.0783920288086 23 23 23 23 23 23 22.7897720336914 22.5001029968262 22.4096088409424 22.4096088409424 22.5977325439453 22.8874015808105 23 23 23.1151809692383 23.3161525726318 23.4096088409424 23.4096088409424 23.1658535003662 22.6752147674561 22.4096088409424 22.4096088409424 22.4096088409424 22.4096088409424 22.6740417480469 23.3656520843506 24.0186195373535 24.5979557037354 25 25 24.8685722351074 24.3779315948486 23.9538345336914 23.7528629302979 23.4964046478271 23.005765914917 22.5595607757568
32.9585113525391 32.5104103088379 32.0678443908691 31.9592952728271 31.9112205505371 31.5441856384277 31.101619720459 31 31 31 31 31 31 31 31 31 31 31 31 31 31 31 31 31.2282104492188 31.7188491821289 31.7905101776123 31.2998714447021 31 31 31 31 31 31 31 31 30.9886455535889 30.9405708312988 30.9020156860352 30.9020156860352 30.831262588501 30.3886966705322 30 30 30 30 30.0200939178467 30.4626579284668 30.901668548584 30.8535938262939 30.8055191040039 30.3751468658447 29.9325828552246 29.0332660675049 28.100061416626 27.9570808410645 27.9090061187744 27.5237922668457 27.0812282562256 26.6386623382568 26.1960983276367 26.0979843139648 26.0979843139648 26.7531108856201 27.6382389068604 27.9357643127441 27.9838390350342 28.2937889099121 28.7363548278809 28.9020156860352 28.9020156860352 28.9020156860352 28.9020156860352 28.6588878631592 28.2163219451904 27.7491817474365 27.2585430145264 27 27 27 27 27.1755809783936 27.6181468963623 27.7433223724365 27.3007564544678 27 27 27 27 27 27 26.9900989532471 26.942024230957 26.9020156860352 26.9020156860352 26.9020156860352 26.9020156860352 26.9020156860352 26.9020156860352 26.9045791625977 26.9526538848877 27.0201377868652 28.3478317260742 29.6755256652832 29.3206272125244 28.9261379241943 28.9020156860352 28.9020156860352 28.8154144287109 28.7192649841309 27.901123046875 26.9679183959961 26.3995571136475 25.9089183807373 25.8040332794189 25.8040332794189 25.4729633331299 25.0303993225098 24.9020156860352 24.9020156860352 25.199312210083 25.6418762207031 25.8344917297363 25.8825664520264 25.6671199798584 25.2726306915283 25.0711917877197 25.0231170654297 25 25 25.2359828948975 25.7266235351562 26.413236618042 27.3464393615723 27.5243892669678 26.5911846160889 25.8201808929443 25.3295421600342 25 25 25 25 25.0121154785156 25.0601902008057 24.993049621582 24.5024108886719 24.0979843139648 24.0979843139648 24.1045970916748 24.1526718139648 24.1911888122559 24.1431140899658 24.1250896453857 24.5676536560059 25 25 25 24.5641040802002 24.1215400695801 24.0979843139648 24.0979843139648 24.0543022155762 24.0062274932861 24 24 24.0400123596191 24.0880870819092 24.4494457244873 24.8920097351074 25.0363445281982 25.0844192504883 25.3811626434326 25.7756519317627 25.9020156860352 25.9020156860352 25.6181030273438 25.175537109375 25 25 24.4453754425049 23.4640960693359 23 23 23.2398700714111 23.7305088043213 24 24 24.4048538208008 25.3861331939697 26 26 26.3299694061279 27.3112468719482 27.7074737548828 26.7261943817139 25.8724575042725 25.3818187713623 25 25 25 25 25.0713787078857 25.5620174407959 25.9473438262939 25.4567031860352 25 25 25 25 25 25 25 25 25 24.5503101348877 24.0596714019775 23.5690307617188 23.0783920288086 23 23 23 23 23 23 22.6439170837402 22.1532764434814 22 22 22.2874202728271 22.7299842834473 22.9020156860352 22.9020156860352 22.9020156860352 22.9020156860352 22.9020156860352 22.9020156860352 22.6821441650391 22.2395801544189 21.9559001922607 21.8597507476807 21.8242473602295 21.8723220825195 22.0896091461182 22.5802478790283 23.2563037872314 24.2856578826904 25 25 24.8685722351074 24.3779315948486 24 24 23.9060134887695 23.4153747558594 23
32.4509162902832 32.2231864929199 32.0296669006348 31.7484283447266 31.4513092041016 31.2379550933838 31.0444355010986 31 31 31 31 31 31 31 31 31 31 31 31 31 31 31 31 31.2282104492188 31.7188491821289 31.7905101776123 31.2998714447021 31 31 31 31 31 31 31 31 30.9298248291016 30.6327037811279 30.3944225311279 30.3944225311279 30.3634834289551 30.1699657440186 30 30 30 30 30.0087871551514 30.2023048400879 30.3922691345215 30.0951499938965 29.7980308532715 29.6013088226318 29.4077892303467 28.7575168609619 28.0733585357666 27.7347393035889 27.4376182556152 27.2290382385254 27.0355186462402 26.8419990539551 26.6484794616699 26.6055774688721 26.6055774688721 26.8920421600342 27.2790813446045 27.6029987335205 27.9001178741455 28.1284656524658 28.3219833374023 28.3944225311279 28.3944225311279 28.3944225311279 28.3944225311279 28.2881107330322 28.0945911407471 27.7491817474365 27.2585430145264 27 27 27 27 27.0767765045166 27.2702960968018 27.3250312805176 27.1315116882324 27 27 27 27 27 27 26.9388084411621 26.6416873931885 26.3944225311279 26.3944225311279 26.3944225311279 26.3944225311279 26.3944225311279 26.3944225311279 26.4102668762207 26.7073860168457 27.0088062286377 27.5893630981445 28.169921875 28.2844867706299 28.3880882263184 28.3944225311279 28.3944225311279 27.8591938018799 27.2649536132812 26.5931549072266 25.9089965820312 25.384370803833 24.8937320709229 24.7888450622559 24.7888450622559 24.644079208374 24.4505596160889 24.3944225311279 24.3944225311279 24.5244197845459 24.7179393768311 24.9771003723145 25.2742195129395 25.456111907959 25.5597114562988 25.4399967193604 25.1428775787354 25 25 25.2359828948975 25.7266235351562 26.3029556274414 26.9871139526367 27.1175727844238 26.4334144592285 25.8201808929443 25.3295421600342 25 25 25 25 25.0748825073242 25.3720035552979 25.5006427764893 25.0100040435791 24.6055774688721 24.6055774688721 24.646448135376 24.9435691833496 25.181619644165 24.88450050354 24.6174297332764 24.8109493255615 25 25 25 24.8093967437744 24.6158771514893 24.6055774688721 24.6055774688721 24.3356094360352 24.0384883880615 24 24 24.24729347229 24.5444145202637 24.7592601776123 24.9527797698975 25.2246189117432 25.5217399597168 25.5312099456787 25.4276084899902 25.3944225311279 25.3944225311279 25.2702770233154 25.0767574310303 25 25 24.4453754425049 23.4640960693359 23 23 23.2398700714111 23.7305088043213 24 24 24.4048538208008 25.3861331939697 26 26 26.3299694061279 27.3112468719482 27.7074737548828 26.7261943817139 25.8724575042725 25.3818187713623 25 25 25 25 25.0713787078857 25.5620174407959 25.9473438262939 25.4567031860352 25 25 25 25 25 25 25 25 25 24.5503101348877 24.0596714019775 23.5690307617188 23.0783920288086 23 23 23 23 23 23 22.6439170837402 22.1532764434814 22 22 22.1256790161133 22.3191986083984 22.3944225311279 22.3944225311279 22.3944225311279 22.3944225311279 22.3944225311279 22.3944225311279 22.2982807159424 22.1047611236572 21.7274475097656 21.1332092285156 20.9137840270996 21.2109050750732 21.5820159912109 22.0726547241211 22.8344287872314 24.1128273010254 25 25 24.8685722351074 24.3779315948486 24 24 23.9060134887695 23.4153747558594 23
32.0564956665039 32 32 31.5845775604248 31.093936920166 31 31 31 31 31 31 31 31 31 31 31 31 31 31 31 31 31 31 31.2023830413818 31.6374969482422 31.677339553833 31.1867008209229 30.8868293762207 30.8868293762207 30.9062995910645 30.9618263244629 31 31 30.9847660064697 30.9292411804199 30.7840614318848 30.3489475250244 29.9890041351318 29.9334774017334 29.8868293762207 29.8868293762207 29.8868293762207 29.8868293762207 29.8868293762207 29.8868293762207 29.8868293762207 29.8868293762207 29.8836765289307 29.4485626220703 29.0134506225586 29 29 28.5432472229004 28.0526084899902 27.5619697570801 27.0713291168213 27 27 27 27 27 27 27.0410976409912 27.096622467041 27.3796367645264 27.7592258453369 27.8868293762207 27.8868293762207 27.9215717315674 27.9770965576172 27.9673767089844 27.9118518829346 27.9173336029053 27.9728584289551 27.7491817474365 27.2585430145264 27 27 27 27 27 27 27 27 27 27 27 27 27 27 26.9103870391846 26.4752750396729 26.103853225708 26.0483283996582 26 26 26 26 26.0232028961182 26.4583148956299 26.8868293762207 26.8868293762207 26.8868293762207 27.366189956665 27.8568286895752 27.8868293762207 27.8868293762207 27.0029945373535 26.0217170715332 25.5115261077881 25.0764141082764 24.5497512817383 24.0035858154297 23.8868293762207 23.8868293762207 23.8868293762207 23.8868293762207 23.8868293762207 23.8868293762207 23.924129486084 23.9796543121338 24.3108692169189 24.8015079498291 25.2590847015381 25.6941986083984 25.6443481445312 25.2092342376709 25 25 25.2359828948975 25.7266235351562 26.2172622680664 26.7079010009766 26.8014583587646 26.3108196258545 25.8201808929443 25.3295421600342 25 25 25 25 25.1096611022949 25.5447750091553 25.7937698364258 25.3586578369141 25 25 25.0598545074463 25.494966506958 25.843578338623 25.4084644317627 25 25 25 25 25 24.9453105926514 24.8897857666016 24.9393997192383 24.9949264526367 24.5541973114014 24.0635566711426 24 24 24.4083614349365 24.8990001678467 25 25 25.3709182739258 25.8615570068359 25.6478023529053 25.1571636199951 25 25 25 25 25 25 24.4453754425049 23.4640960693359 23 23 23.2127227783203 23.6478366851807 23.9368839263916 24.0479354858398 24.4722061157227 25.3424339294434 25.9076194763184 25.9631462097168 26.2926254272461 27.1628532409668 27.4976844787598 26.5719318389893 25.7592868804932 25.268648147583 24.8868293762207 24.8868293762207 24.8868293762207 24.8868293762207 24.9501304626465 25.3852424621582 25.7269611358643 25.2918472290039 24.8868293762207 24.8868293762207 24.8868293762207 24.8868293762207 24.8868293762207 24.8868293762207 24.8868293762207 24.8868293762207 24.8868293762207 24.4880313873291 24.0529174804688 23.6178035736084 23.1826915740967 23.1131706237793 23.1131706237793 23.0686340332031 23.0131092071533 23 23 22.7245121002197 22.3449249267578 22.2263412475586 22.2263412475586 22.2263412475586 22.2263412475586 22.1923980712891 22.1368732452393 22.0813465118408 22.025821685791 22 22 21.9724140167236 21.9168872833252 21.4622268676758 20.5364742279053 20.2063140869141 20.6969528198242 21.1875915527344 21.6782321929932 22.4875011444092 23.9038944244385 24.9038219451904 24.9593486785889 24.8834457397461 24.4483318328857 24.1131706237793 24.1131706237793 24.0191841125488 23.5285453796387 23.1131706237793
32.0564956665039 32 32 31.5845775604248 31.093936920166 31 31 31 31 31 31 31 31 31 31 31 31 31 31 31 31 31 31 31.0865459442139 31.2726135253906 31.1697463989258 30.6791076660156 30.3792362213135 30.3792362213135 30.4860363006592 30.7906074523926 31 31 30.9164428710938 30.6118717193604 30.3352890014648 30.1492214202881 29.9396858215332 29.6351146697998 29.3792362213135 29.3792362213135 29.3792362213135 29.3792362213135 29.3792362213135 29.3792362213135 29.3792362213135 29.3792362213135 29.3778877258301 29.1918201446533 29.0057506561279 29 29 28.5432472229004 28.0526084899902 27.5619697570801 27.0713291168213 27 27 27 27 27 27 27.2254276275635 27.5299987792969 27.537576675415 27.4190731048584 27.3792362213135 27.3792362213135 27.5697994232178 27.8743705749512 27.8210582733154 27.516487121582 27.5465564727783 27.8511276245117 27.7491817474365 27.2585430145264 27 27 27 27 27 27 27 27 27 27 27 27 27 27 26.9616794586182 26.7756099700928 26.5696582794189 26.2650871276855 26 26 26 26 26.0099220275879 26.1959896087646 26.3792362213135 26.3792362213135 26.3792362213135 26.8585968017578 27.349235534668 27.3792362213135 27.3792362213135 26.4954013824463 25.514123916626 25.2187442779541 25.0326766967773 24.3444423675537 23.5492324829102 23.3792362213135 23.3792362213135 23.3792362213135 23.3792362213135 23.3792362213135 23.3792362213135 23.583833694458 23.8884048461914 24.3108692169189 24.8015079498291 25.1107921600342 25.2968616485596 25.2755432128906 25.0894756317139 25 25 25.2359828948975 25.7266235351562 26.2172622680664 26.7079010009766 26.8014583587646 26.3108196258545 25.8201808929443 25.3295421600342 25 25 25 25 25.0468940734863 25.2329635620117 25.3394412994385 25.1533737182617 25 25 25.0255947113037 25.2116641998291 25.3607406616211 25.1746730804443 25 25 25 25 25 24.7000179290771 24.3954467773438 24.6675968170166 24.97216796875 24.5541973114014 24.0635566711426 24 24 24.4083614349365 24.8990001678467 25 25 25.3709182739258 25.8615570068359 25.6478023529053 25.1571636199951 25 25 25 25 25 25 24.4453754425049 23.4640960693359 23 23 23.0909671783447 23.2770347595215 23.6537971496582 24.262939453125 24.774299621582 25.1464347839355 25.4932746887207 25.7978458404541 26.1251354217529 26.4972724914551 26.5567417144775 25.880033493042 25.2516937255859 24.7610549926758 24.3792362213135 24.3792362213135 24.3792362213135 24.3792362213135 24.4063053131104 24.5923728942871 24.7385025024414 24.5524349212646 24.3792362213135 24.3792362213135 24.3792362213135 24.3792362213135 24.3792362213135 24.3792362213135 24.3792362213135 24.3792362213135 24.3792362213135 24.2086982727051 24.0226287841797 23.8365612030029 23.6504936218262 23.6207637786865 23.6207637786865 23.3764762878418 23.0719051361084 23 23 23.0860042572021 23.2045078277588 23.241527557373 23.241527557373 23.241527557373 23.241527557373 23.055347442627 22.7507762908936 22.4462051391602 22.1416339874268 22 22 21.8486843109131 21.5441131591797 21.0688610076904 20.3921527862549 20.2063140869141 20.6969528198242 21.1875915527344 21.6782321929932 22.401782989502 23.5691299438477 24.4724445343018 24.7770156860352 24.9501571655273 24.7640895843506 24.6207637786865 24.6207637786865 24.5267772674561 24.0361385345459 23.6207637786865
32.049243927002 31.9442749023438 31.8812980651855 31.50954246521 31.081880569458 31 31 31.0485172271729 31.1114940643311 31.0822429656982 31.01926612854 31 31 31 31 31 31 31 31 31 31 31 31 31 31 30.7905101776123 30.2998714447021 30 30 30.1499633789062 30.5776252746582 30.8716430664062 30.8716430664062 30.7543163299561 30.3266544342041 29.9851264953613 29.9221477508545 29.7869529724121 29.3592910766602 29 29 29 29 29 29 29 29 29 29 29 28.9389705657959 28.8759918212891 28.473518371582 28.0458564758301 27.5619697570801 27.0713291168213 27 27 27 27 27 27 27.4097576141357 27.9633750915527 27.7397232055664 27.186107635498 27 27 27.3069820404053 27.7976207733154 27.7117385864258 27.2210998535156 27.2695388793945 27.7601795196533 27.7813758850098 27.3537139892578 27.1283569335938 27.1283569335938 27.1283569335938 27.1283569335938 27.1033725738525 27.0403957366943 27 27 27 27 27 27 27 27 27 27 26.9282398223877 26.5005779266357 26.1201934814453 26.0572166442871 25.9942378997803 25.9312610626221 25.8750019073486 25.9379787445068 26 26 26 26.4793605804443 26.9699993133545 26.9408740997314 26.8778972625732 26.0445308685303 25.1262302398682 24.9456806182861 24.8827018737793 24.1146106719971 23.196310043335 23 23 23 23 23 23 23.32958984375 23.8202285766602 24.3108692169189 24.8015079498291 25 25 25 25 25.032693862915 25.0956707000732 25.3340511322021 25.7617130279541 26.2172622680664 26.7079010009766 26.8014583587646 26.3108196258545 25.8201808929443 25.3295421600342 25 25 25 25 25 25 25 25 25 25 25 25 25 25 25 25 25 25 25 24.5167541503906 24.0261154174805 24.4645252227783 24.9551639556885 24.5541973114014 24.0635566711426 24 24 24.4083614349365 24.8990001678467 25 25 25.3709182739258 25.8615570068359 25.6478023529053 25.1571636199951 25 25 25 25 25 25 24.4453754425049 23.4640960693359 23 23 23 23 23.4139099121094 24.3322124481201 24.8716430664062 24.8716430664062 25.0553493499756 25.5459880828857 25.8716430664062 25.8716430664062 25.7253799438477 25.2347412109375 24.7604713439941 24.3328094482422 24 24 24 24 24 24 23.9932403564453 23.9302635192871 23.8759994506836 23.9389762878418 24 24 24 24 24 24 24 24 24 23.9446811676025 23.8817043304443 23.8716430664062 23.8716430664062 23.5286293029785 23.1009654998779 23 23 23.3560829162598 23.8467235565186 24 24 24 24 23.700080871582 23.2094402313232 22.7548961639404 22.3272323608398 22.1283569335938 22.1283569335938 21.8846015930176 21.3939609527588 20.8744373321533 20.320821762085 20.2063140869141 20.6969528198242 21.1635131835938 21.5911750793457 22.2310600280762 23.2753162384033 24.1308765411377 24.5585384368896 24.8716430664062 24.8716430664062 24.8861103057861 24.9490871429443 24.9180774688721 24.4904155731201 24.1186962127686
32.0205688476562 31.7239055633545 31.4118843078613 31.2128143310547 31.0341987609863 31 31 31.2403774261475 31.5523986816406 31.4074802398682 31.0954570770264 31 31 31 31 31 31 31 31 31 31 31 31 31 31 30.7905101776123 30.2998714447021 30 30 30.0626335144043 30.2412509918213 30.364049911499 30.364049911499 30.3150463104248 30.1364307403564 29.9263038635254 29.6142826080322 29.3286781311035 29.1500606536865 29 29 29 29 29 29 29 29 29 29 29 28.6976222991943 28.3856010437012 28.1977691650391 28.0191516876221 27.5619697570801 27.0713291168213 27 27 27 27 27 27 27.594087600708 28.39674949646 28.07248878479 27.2698268890381 27 27 27.3069820404053 27.7976207733154 27.7117385864258 27.2210998535156 27.2695388793945 27.7601795196533 27.9086894989014 27.7300720214844 27.635950088501 27.635950088501 27.635950088501 27.635950088501 27.5121593475342 27.200138092041 27 27 27 27 27 27 27 27 27 27 26.9700298309326 26.7914123535156 26.5955009460449 26.2834777832031 25.97145652771 25.6594333648682 25.380687713623 25.6927108764648 26 26 26 26.4793605804443 26.9699993133545 26.7070560455322 26.3950347900391 25.7612533569336 25.0919971466064 24.7308692932129 24.4188461303711 23.8123264312744 23.1430702209473 23 23 23 23 23 23 23.32958984375 23.8202285766602 24.3108692169189 24.8015079498291 25 25 25 25 25.161979675293 25.4740009307861 25.7218608856201 25.9004764556885 26.2172622680664 26.7079010009766 26.8014583587646 26.3108196258545 25.8201808929443 25.3295421600342 25 25 25 25 25 25 25 25 25 25 25 25 25 25 25 25 25 25 25 24.5167541503906 24.0261154174805 24.4645252227783 24.9551639556885 24.5541973114014 24.0635566711426 24 24 24.4083614349365 24.8990001678467 25 25 25.3709182739258 25.8615570068359 25.6478023529053 25.1571636199951 25 25 25 25 25 25 24.4453754425049 23.4640960693359 23 23 23 23 23.3016567230225 23.9709129333496 24.364049911499 24.364049911499 24.5477561950684 25.0383949279785 25.364049911499 25.364049911499 25.2177867889404 24.7271461486816 24.3176174163818 24.1390018463135 24 24 24 24 24 24 23.9665126800537 23.6544914245605 23.3856315612793 23.6976528167725 24 24 24 24 24 24 24 24 24 23.7259254455566 23.4139022827148 23.364049911499 23.364049911499 23.2207870483398 23.0421695709229 23 23 23.3560829162598 23.8467235565186 24 24 24 24 23.700080871582 23.2094402313232 22.8976306915283 22.7190132141113 22.635950088501 22.635950088501 22.3921947479248 21.901554107666 21.2678050994873 20.4651432037354 20.2063140869141 20.6969528198242 21.0682926177979 21.2469100952148 21.8091850280762 23.1024856567383 24.0546627044678 24.2332782745361 24.364049911499 24.364049911499 24.4357261657715 24.7477474212646 24.965784072876 24.787166595459 24.5880851745605
32 31.628173828125 31.2079639434814 31.083911895752 31.013484954834 31 31 31.3237247467041 31.7439346313477 31.5487670898438 31.1285552978516 31 31 30.9538059234619 30.8833770751953 30.8564567565918 30.8564567565918 30.8564567565918 30.8564567565918 30.894588470459 30.9650173187256 31 31 30.9672412872314 30.8968143463135 30.677038192749 30.2568264007568 30 30 30 30 30 30 30 30 29.8841171264648 29.3934783935547 29 29 29 29 29 29 29.0058841705322 29.0763130187988 29.1403465270996 29.069917678833 29 29 29 28.5245265960693 28.0338878631592 28 28 27.5619697570801 27.0713291168213 27 27 27 27 27 27 27.7262916564941 28.7075710296631 28.3605918884277 27.4497413635254 27.1435432434082 27.1435432434082 27.4064598083496 27.8266716003418 27.7117385864258 27.2210998535156 27.2695388793945 27.7601795196533 28 28 28 28 28 28 27.8332862854004 27.4130764007568 27.1435432434082 27.1435432434082 27.1435432434082 27.1435432434082 27.1435432434082 27.1435432434082 27.1435432434082 27.1435432434082 27.1435432434082 27.1435432434082 27.1317253112793 27.0612983703613 26.936393737793 26.4457550048828 25.9615592956543 25.5413475036621 25.1659507751465 25.5861625671387 26 26 26 26.4793605804443 26.9699993133545 26.5393619537354 26.0487213134766 25.5580825805664 25.0674438476562 24.5768032073975 24.0861644744873 23.5955257415771 23.1048851013184 23 23 23 23 23 23 23.2822799682617 23.7024898529053 24.2119483947754 24.7730159759521 25 25 25 25 25.2547054290771 25.7453441619873 26 26 26.2172622680664 26.7079010009766 26.8014583587646 26.3108196258545 25.8201808929443 25.3295421600342 25 25 25 25 25 25 25 25 25 25 25 25 25 25 25 25 24.9983730316162 24.9279460906982 24.8575172424316 24.4425773620605 24.0223655700684 24.3978443145752 24.8180561065674 24.474645614624 24.0544338226318 24 24 24.4083614349365 24.8990001678467 25 25 25.3176746368408 25.737886428833 25.5548152923584 25.1346035003662 25 25 25 25 25 25 24.4453754425049 23.4640960693359 23 23 23 23 23.2211475372314 23.7117881774902 24 24 24.1573352813721 24.5775470733643 24.8564567565918 24.8564567565918 24.7311878204346 24.310977935791 23.9816913604736 23.9112644195557 23.8564567565918 23.8564567565918 23.8564567565918 23.8564567565918 23.8564567565918 23.8564567565918 23.8113574981689 23.3911476135254 23.0290641784668 23.449275970459 23.8564567565918 23.8564567565918 23.8564567565918 23.8564567565918 23.8564567565918 23.8564567565918 23.8564567565918 23.9210071563721 23.99143409729 23.6308937072754 23.2106838226318 23.0843677520752 23.0139408111572 23 23 23 23 23.3560829162598 23.8467235565186 24 24 24 24 23.7861843109131 23.4364013671875 23.2467231750488 23.1762943267822 23.1435432434082 23.1435432434082 22.8298091888428 22.1983127593994 21.4386882781982 20.5278377532959 20.2063140869141 20.6969528198242 21 21 21.5308532714844 23.0732002258301 24.1866493225098 24.327507019043 24.3740348815918 24.1627502441406 24.1127071380615 24.6033458709717 24.9865093231201 24.9160804748535 24.7811908721924
32 31.8485431671143 31.6773777008057 31.3806400299072 31.0611667633057 31 31 31.1318626403809 31.3030300140381 31.2235298156738 31.0523643493652 31 31 30.7904529571533 30.4709796905518 30.3488636016846 30.3488636016846 30.3488636016846 30.3488636016846 30.5218391418457 30.8413124084473 31 31 30.8514041900635 30.5319309234619 30.2757797241211 30.1046142578125 30 30 30 30 30 30 30 30 29.8841171264648 29.3934783935547 29 29 29 29 29 29 29.0266952514648 29.3461685180664 29.6366329193115 29.3171577453613 29 29 29 28.5245265960693 28.0338878631592 28 28 27.5619697570801 27.0713291168213 27 27 27 27 27 27 27.7262916564941 28.7075710296631 28.5354194641113 27.8736133575439 27.6511363983154 27.6511363983154 27.7582321166992 27.9293975830078 27.7117385864258 27.2210998535156 27.2695388793945 27.7601795196533 28 28 28 28 28 28 27.932092666626 27.7609272003174 27.6511363983154 27.6511363983154 27.6511363983154 27.6511363983154 27.6511363983154 27.6511363983154 27.6511363983154 27.6511363983154 27.6511363983154 27.6511363983154 27.5975303649902 27.2780570983887 26.936393737793 26.4457550048828 25.9843406677246 25.813175201416 25.6602649688721 25.8314304351807 26 26 26 26.4793605804443 26.9699993133545 26.5393619537354 26.0487213134766 25.5580825805664 25.0674438476562 24.5768032073975 24.0861644744873 23.5955257415771 23.1048851013184 23 23 23 23 23 23 23.1149806976318 23.2861480712891 23.8621482849121 24.6722621917725 25 25 25 25 25.2547054290771 25.7453441619873 26 26 26.2172622680664 26.7079010009766 26.8014583587646 26.3108196258545 25.8201808929443 25.3295421600342 25 25 25 25 25 25 25 25 25 25 25 25 25 25 25 25 24.9926242828369 24.6731510162354 24.3536777496338 24.1802768707275 24.0091094970703 24.1620559692383 24.3332214355469 24.193338394165 24.0221729278564 24 24 24.4083614349365 24.8990001678467 25 25 25.1294002532959 25.3005657196045 25.2259941101074 25.0548286437988 25 25 25 25 25 25 24.4453754425049 23.4640960693359 23 23 23 23 23.2211475372314 23.7117881774902 24 24 24.0640888214111 24.2352542877197 24.3488636016846 24.3488636016846 24.2978363037109 24.1266708374023 23.9169521331787 23.5974788665771 23.3488636016846 23.3488636016846 23.3488636016846 23.3488636016846 23.3488636016846 23.3488636016846 23.3304920196533 23.1593265533447 23.0118389129639 23.1830043792725 23.3488636016846 23.3488636016846 23.3488636016846 23.3488636016846 23.3488636016846 23.3488636016846 23.3488636016846 23.6416721343994 23.961145401001 23.8496513366699 23.6784858703613 23.3827075958252 23.0632343292236 23 23 23 23 23.3560829162598 23.8467235565186 24 24 24 24 24.0906581878662 24.2389659881592 24.1191749572754 23.7997016906738 23.6511363983154 23.6511363983154 23.0899448394775 21.9603576660156 21.0453224182129 20.3835163116455 20.2063140869141 20.6969528198242 21 21 21.6165714263916 23.4079627990723 24.8466739654541 25.4856204986572 25.6966781616211 24.7382564544678 24.1127071380615 24.6033458709717 24.9388027191162 24.6193294525146 24.2735977172852
32 31.9310874938965 31.8532085418701 31.4917869567871 31.0790271759033 31 31 31 31 31 31 31 31 30.6781826019287 30.1875438690186 30 30 30 30 30.2234859466553 30.6362457275391 30.8412704467773 30.8412704467773 30.6130599975586 30.1224193572998 29.8412704467773 29.8412704467773 29.8412704467773 29.8412704467773 29.8412704467773 29.8412704467773 29.8656063079834 29.9434871673584 29.9786338806152 29.9007549285889 29.7437801361084 29.3310203552246 29 29 29 29 29 29 29.0344905853271 29.4472503662109 29.8225288391113 29.4097690582275 29 29 29 28.5999984741211 28.1872386932373 28.0862293243408 28.0083503723145 27.5619697570801 27.0713291168213 27 27 27 27 27 27 27.7839336395264 28.8430919647217 28.8143062591553 28.3236656188965 28.1587295532227 28.1587295532227 28.1100025177002 28.0321235656738 27.7117385864258 27.2210998535156 27.2267551422119 27.6395149230957 27.88108253479 27.9589614868164 28.0368404388428 28.1147193908691 28.1248607635498 28.0469818115234 28 28 28 28 28 28 28.0219821929932 28.0998611450195 28.1397190093994 28.061840057373 28 28 27.9307403564453 27.5179805755615 27.1052207946777 26.6924610137939 26.3103370666504 26.2324562072754 26.154577255249 26.0766983032227 26 26 26 26.4793605804443 26.9699993133545 26.5393619537354 26.0487213134766 25.5580825805664 25.0674438476562 24.5768032073975 24.0861644744873 23.5955257415771 23.1048851013184 23 23 23 23 23 23 23 23 23.5723915100098 24.4757919311523 24.8876419067383 24.9655208587646 25 25 25.2547054290771 25.7453441619873 26 26 26.2172622680664 26.7079010009766 26.8014583587646 26.3108196258545 25.8201808929443 25.3295421600342 25 25 24.9773998260498 24.8995208740234 24.8412704467773 24.8412704467773 24.8412704467773 24.8412704467773 24.8549537658691 24.9328327178955 25 25 24.9922580718994 24.914379119873 24.8412704467773 24.8412704467773 24.8317394256592 24.4189796447754 24.0062198638916 24 24 24 24 24.0707626342773 24.1486415863037 24.1587295532227 24.1587295532227 24.5022716522217 24.9150314331055 25 25 25 25 25 25 25 25 25 25 24.953010559082 24.8751316070557 24.3306636810303 23.4272632598877 23 23 22.9619255065918 22.8840465545654 23.0624179840088 23.5530567169189 23.8412704467773 23.8412704467773 23.8704299926758 23.9483089447021 24 24 23.9767837524414 23.898904800415 23.7339725494385 23.3212127685547 23 23 23 23 22.9886703491211 22.9107913970947 22.8412704467773 22.8412704467773 22.8412704467773 22.8412704467773 22.8436851501465 22.9215641021729 22.9994430541992 23 23 23 23 23.4496898651123 23.9403285980225 24 24 23.5877532958984 23.0971126556396 23 23 23 23 23.3560829162598 23.8467235565186 24 24 24 24 24.299919128418 24.7905597686768 24.7188014984131 24.2281627655029 23.9583377838135 23.8804569244385 23.2260761260986 21.9877967834473 21.1281452178955 20.7153854370117 20.6497554779053 21.0625171661377 21.3174610137939 21.3174610137939 21.9393348693848 23.7461338043213 25.2287998199463 25.9764404296875 26.1921081542969 24.9538288116455 24.0948162078857 24.5075778961182 24.7472839355469 24.2566452026367 23.7779521942139
32 31.7107200622559 31.3837947845459 31.1950588226318 31.0313453674316 31 31 31 31 31 31 31 31 30.6781826019287 30.1875438690186 30 30 30 30 30.0886421203613 30.2523574829102 30.3336753845215 30.3336753845215 30.1054649353027 29.6148262023926 29.3336753845215 29.3336753845215 29.3336753845215 29.3336753845215 29.3336753845215 29.3336753845215 29.4358406066895 29.7627658843994 29.9103107452393 29.5833854675293 29.2950096130371 29.1312942504883 29 29 29 29 29 29 29.0136795043945 29.1773948669434 29.3262424468994 29.1625289916992 29 29 29 28.8413467407227 28.6776313781738 28.3619785308838 28.0350551605225 27.5619697570801 27.0713291168213 27 27 27 27 27 27 27.9682636260986 29.2764682769775 29.3218994140625 28.8312606811523 28.6663246154785 28.6663246154785 28.4617748260498 28.1348495483398 27.7117385864258 27.2210998535156 27.0899391174316 27.2536544799805 27.5008029937744 27.8277263641357 28.1546516418457 28.4815769195557 28.5241470336914 28.1972217559814 28 28 28 28 28 28 28.0922794342041 28.4192047119141 28.586519241333 28.259593963623 28 28 27.9725303649902 27.8088150024414 27.6450996398926 27.4813861846924 27.3027400970459 26.9758148193359 26.6488914489746 26.3219661712646 26 26 26 26.4793605804443 26.9699993133545 26.5393619537354 26.0487213134766 25.5580825805664 25.0674438476562 24.5768032073975 24.0861644744873 23.5955257415771 23.1048851013184 23 23 23 23 23 23 23 23 23.4145984649658 24.0689525604248 24.528341293335 24.8552646636963 25 25 25.2547054290771 25.7453441619873 26 26 26.2172622680664 26.7079010009766 26.8014583587646 26.3108196258545 25.8201808929443 25.3295421600342 25 25 24.9051303863525 24.5782070159912 24.3336753845215 24.3336753845215 24.3336753845215 24.3336753845215 24.3911228179932 24.7180461883545 25 25 24.9675025939941 24.6405792236328 24.3336753845215 24.3336753845215 24.3298969268799 24.1661815643311 24.0024662017822 24 24 24 24 24.2970485687256 24.6239738464355 24.6663246154785 24.6663246154785 24.802583694458 24.9662990570068 25 25 25 25 25 25 25 25 25 25 24.8027458190918 24.4758205413818 23.963830947876 23.309476852417 23 23 22.8401699066162 22.5132446289062 22.5548248291016 23.0454635620117 23.3336753845215 23.3336753845215 23.4560832977295 23.7830085754395 24 24 23.9025421142578 23.5756168365479 23.2911186218262 23.1274032592773 23 23 23 23 22.9524383544922 22.6255149841309 22.3336753845215 22.3336753845215 22.3336753845215 22.3336753845215 22.3438148498535 22.6707382202148 22.9976634979248 23 23 23 23 23.4496898651123 23.9403285980225 24 24 23.5877532958984 23.0971126556396 23 23 23 23 23.3560829162598 23.8467235565186 24 24 24 24 24.299919128418 24.7905597686768 24.7188014984131 24.2281627655029 23.8251056671143 23.4981803894043 23.0896701812744 22.5985260009766 22.2575588226318 22.093843460083 22.067813873291 22.2315273284912 22.3326473236084 22.3326473236084 22.7830848693848 24.0917930603027 25.0001544952393 25.000659942627 24.8694648742676 24.3783206939697 24.0376071929932 24.201322555542 24.2396907806396 23.7490501403809 23.3085632324219
32 31.5658550262451 31.075216293335 31 31 31 31 31 31 31 31 31 31 30.6781826019287 30.1875438690186 30 30 30 30 30 30 30 30 29.8114795684814 29.4061698913574 29.1739177703857 29.1739177703857 29.140739440918 29.0554084777832 29 29 29.1533260345459 29.6439647674561 29.8888053894043 29.4834976196289 29.1537628173828 29.068431854248 29 29 29 29 29 29 29 29 29 29 29 29 29 29 29 28.5432472229004 28.0526084899902 27.5619697570801 27.0713291168213 27.072925567627 27.1582565307617 27.1739177703857 27.1739177703857 27.1739177703857 27.1739177703857 28.1370391845703 29.4382972717285 29.5415592193604 29.136251449585 29 29 28.6930179595947 28.2023792266846 27.7618732452393 27.3565635681152 27.1739177703857 27.1739177703857 27.3811130523682 27.7864227294922 28.1917304992676 28.5970401763916 28.6498165130615 28.2445087432861 28 28 28 28 28 28 28.1384906768799 28.62912940979 28.8802299499512 28.389591217041 28 28 28 28 28 28 27.9551162719727 27.4644756317139 26.9738368988037 26.4831981658936 26 26 26 26.4793605804443 26.9699993133545 26.5393619537354 26.0487213134766 25.5580825805664 25.0674438476562 24.5032024383545 23.9272327423096 23.4919528961182 23.0866451263428 23 23 23 23 23 23 23 23 23.3108692169189 23.8015079498291 24.2413368225098 24.6466464996338 24.8736362457275 24.9589672088623 25.2547054290771 25.7453441619873 26.0410423278809 26.126371383667 26.3533935546875 26.7587013244629 26.8014583587646 26.3108196258545 25.8201808929443 25.3295421600342 24.9719829559326 24.8866519927979 24.7084674835205 24.3031597137451 24 24 23.9817504882812 23.8964195251465 23.9272899627686 24.5032596588135 25 25 24.951229095459 24.4605903625488 24 24 24 24 24 24 24 24 24 24.3682708740234 24.7735786437988 24.8260822296143 24.8260822296143 24.9681243896484 25.138786315918 25.1061515808105 25.0208206176758 25 25 25 25 25 25 24.9452590942383 24.8599281311035 24.5815353393555 24.1762256622314 23.7709178924561 23.365608215332 23.1289443969727 23.0436134338379 22.7601299285889 22.2694911956787 22.2211475372314 22.7117881774902 23 23 23.1837062835693 23.6743450164795 24 24 23.8537368774414 23.3630981445312 22.9778175354004 22.8924884796143 22.8260822296143 22.8260822296143 22.8260822296143 22.8260822296143 22.7671184539795 22.3618106842041 22 22 22 22 22.0152149200439 22.5058536529541 22.9964923858643 23 23 23 23 23.4496898651123 23.9403285980225 23.9250469207764 23.8397159576416 23.4855327606201 23.0802230834961 23 23 23.065185546875 23.1505146026611 23.4680709838867 23.8733806610107 24 24 24 24 24.299919128418 24.7905597686768 24.7677059173584 24.362398147583 23.957088470459 23.5517807006836 23.3478336334229 23.3478336334229 23.3478336334229 23.3478336334229 23.3119525909424 23.2266216278076 23.1739177703857 23.1739177703857 23.4822902679443 24.3782367706299 24.8237361907959 24.247766494751 23.8260822296143 23.8260822296143 23.8260822296143 23.8260822296143 23.7320976257324 23.2414569854736 22.8260822296143
32 31.5658550262451 31.075216293335 31 31 31 31 31 31 31 31 31 31 30.6781826019287 30.1875438690186 30 30 30 30 30 30 30 30 29.9273166656494 29.771053314209 29.681510925293 29.681510925293 29.5515003204346 29.2171249389648 29 29 29.1533260345459 29.6439647674561 29.9571304321289 29.8008670806885 29.6025352478027 29.268159866333 29 29 29 29 29 29 29 29 29 29 29 29 29 29 29 28.5432472229004 28.0526084899902 27.5619697570801 27.0713291168213 27.2857646942139 27.6201400756836 27.681510925293 27.681510925293 27.681510925293 27.681510925293 28.275972366333 29.0791397094727 29.2087936401367 29.0525302886963 29 29 28.6930179595947 28.2023792266846 27.9081916809082 27.7519283294678 27.681510925293 27.681510925293 27.7613925933838 27.9176559448242 28.0739212036133 28.2301845550537 28.2505321502686 28.0942687988281 28 28 28 28 28 28 28.1384906768799 28.62912940979 28.8802299499512 28.389591217041 28 28 28 28 28 28 27.9551162719727 27.4644756317139 26.9738368988037 26.4831981658936 26 26 26 26.4793605804443 26.9699993133545 26.5393619537354 26.0487213134766 25.5580825805664 25.0674438476562 24.2883911132812 23.4633769989014 23.1896686553955 23.0334053039551 23 23 23 23 23 23 23 23 23.3108692169189 23.8015079498291 24.0930461883545 24.2493095397949 24.5048313140869 24.8392086029053 25.2547054290771 25.7453441619873 26.1608257293701 26.4952011108398 26.7507057189941 26.9069690704346 26.8014583587646 26.3108196258545 25.8201808929443 25.3295421600342 24.890209197998 24.5558338165283 24.2731437683105 24.1168804168701 24 24 23.9284858703613 23.5941104888916 23.4634571075439 24.2884731292725 25 25 24.951229095459 24.4605903625488 24 24 24 24 24 24 24 24 24 24.1419830322266 24.2982482910156 24.318489074707 24.318489074707 24.875093460083 25.5438461303711 25.4159660339355 25.0815906524658 25 25 25 25 25 25 24.7854919433594 24.4511165618896 24.2242069244385 24.0679416656494 23.911678314209 23.7554149627686 23.505277633667 23.1709022521973 22.7601299285889 22.2694911956787 22.2211475372314 22.7117881774902 23 23 23.1837062835693 23.6743450164795 24 24 23.8537368774414 23.3630981445312 22.9130783081055 22.5787029266357 22.318489074707 22.318489074707 22.318489074707 22.318489074707 22.2957572937012 22.1394920349121 22 22 22 22 22.0152149200439 22.5058536529541 22.9964923858643 23 23 23 23 23.4496898651123 23.9403285980225 23.7062911987305 23.3719139099121 23.1871929168701 23.0309295654297 23 23 23.2554340362549 23.5898094177246 23.7949199676514 23.9511833190918 24 24 24 24 24.299919128418 24.7905597686768 24.9104404449463 24.7541770935059 24.5979137420654 24.441650390625 24.3630199432373 24.3630199432373 24.3630199432373 24.3630199432373 24.2224159240723 23.8880405426025 23.681510925293 23.681510925293 23.9041652679443 24.5510673522949 24.747522354126 23.9225063323975 23.318489074707 23.318489074707 23.318489074707 23.318489074707 23.2245044708252 22.7338638305664 22.318489074707
31.8108959197998 31.3767528533936 30.8861122131348 30.8894538879395 30.9822368621826 31 31 30.9285221099854 30.8357410430908 30.8108959197998 30.8108959197998 30.8752937316895 30.968074798584 30.6781826019287 30.1875438690186 30 30 30.0537757873535 30.1465587615967 30.1891040802002 30.1891040802002 30.1424083709717 30.0496253967285 30 30 30 30 29.8453063964844 29.4474487304688 29.1891040802002 29.1891040802002 29.3134346008301 29.7112922668457 30 30 29.8841171264648 29.3934783935547 29.0183734893799 29.1111545562744 29.1891040802002 29.1891040802002 29.1778106689453 29.0850296020508 29 29 29 29 29 29 29 29 29 28.5432472229004 28.0526084899902 27.6448020935059 27.2469444274902 27.5291194915771 27.9269771575928 28.0757522583008 28.1685352325439 28.1168918609619 28.0241088867188 28.3631458282471 28.8537845611572 29 29 29 29 28.6930179595947 28.2023792266846 28 28 28 28 28 28 28 28 28 28 27.9631900787354 27.8704090118408 27.844165802002 27.9369468688965 27.9702701568604 27.8774890899658 27.9755764007568 28.5589962005615 28.8802299499512 28.389591217041 28 28 28 28 28 28 27.9551162719727 27.4644756317139 26.9738368988037 26.4831981658936 25.998592376709 25.9058113098145 25.8130302429199 26.3809051513672 26.9643249511719 26.5393619537354 26.0487213134766 25.5580825805664 25.0674438476562 24.1536083221436 23.1723289489746 23 23 23 23 23 23 23 23 23 23 23.3108692169189 23.8015079498291 24 24 24.2734260559082 24.7640647888184 25.2547054290771 25.7453441619873 26.2359828948975 26.7266235351562 27.0410842895508 27.1338672637939 26.9530181884766 26.3695964813232 25.8201808929443 25.3295421600342 24.8693656921387 24.471508026123 24.1891040802002 24.1891040802002 24.1657199859619 24.0729389190674 23.8950653076172 23.404426574707 23.1561222076416 24.044620513916 24.8108959197998 24.8108959197998 24.7713489532471 24.3734912872314 24 24 24 24 24 24 24 24 24 24 24 24.0807628631592 24.1735439300537 24.8513813018799 25.6470966339111 25.4949398040771 25.0970821380615 25 25 25 25 25 25 24.7447662353516 24.3469085693359 24.1891040802002 24.1891040802002 24.1891040802002 24.1891040802002 23.88161277771 23.2981910705566 22.8054904937744 22.4076328277588 22.4102516174316 22.9008922576904 23.1891040802002 23.1891040802002 23.3380699157715 23.7359275817871 24 24 23.8537368774414 23.3630981445312 22.8724575042725 22.3818187713623 22 22 22 22 22 22 21.9900417327881 21.8972606658936 21.8173141479492 21.9100952148438 22.0152149200439 22.5058536529541 22.9964923858643 23 23 23 23 23.364652633667 23.7625102996826 23.46142578125 23.0635681152344 23.0779571533203 23.1707401275635 23.1891040802002 23.1891040802002 23.4930324554443 23.89089012146 23.9326629638672 23.8398818969727 23.8746929168701 23.9674739837646 24 24 24.299919128418 24.7905597686768 25 25 25.099271774292 25.2848339080811 25.2860164642334 25.1004543304443 25 25 24.7936859130859 24.3030471801758 24 24 24.1688709259033 24.6595096588135 24.6713066101074 23.5972461700439 22.8108959197998 22.8108959197998 22.8108959197998 22.8108959197998 22.7346839904785 22.3368263244629 22
31.3033027648926 30.8691577911377 30.3785190582275 30.5927276611328 30.9345531463623 31 31 30.7366619110107 30.3948345184326 30.3033027648926 30.3033027648926 30.5405540466309 30.882381439209 30.6781826019287 30.1875438690186 30 30 30.1981220245361 30.5399494171143 30.6966972351074 30.6966972351074 30.5246601104736 30.1828327178955 30 30 30 30 29.942138671875 29.793327331543 29.6966972351074 29.6966972351074 29.743200302124 29.8920135498047 30 30 29.8841171264648 29.3934783935547 29.0676918029785 29.4095191955566 29.6966972351074 29.6966972351074 29.6550903320312 29.3132648468018 29 29 29 29 29 29 29 29 29 28.5432472229004 28.0526084899902 27.8671436309814 27.7183322906494 27.8238754272461 27.9726867675781 28.279088973999 28.6209163665771 28.4306507110596 28.0888252258301 28.3631458282471 28.8537845611572 29 29 29 29 28.6930179595947 28.2023792266846 28 28 28 28 28 28 28 28 28 28 27.8643856048584 27.5225582122803 27.425874710083 27.7677021026611 27.8904705047607 27.5486450195312 27.5382785797119 28.3707466125488 28.8802299499512 28.389591217041 28 28 28 28 28 28 27.9551162719727 27.4644756317139 26.9738368988037 26.4831981658936 25.994815826416 25.6529884338379 25.3111610412598 26.1166305541992 26.9490966796875 26.5393619537354 26.0487213134766 25.5580825805664 25.0674438476562 24.1536083221436 23.1723289489746 23 23 23 23 23 23 23 23 23 23 23.3108692169189 23.8015079498291 24 24 24.2734260559082 24.7640647888184 25.2547054290771 25.7453441619873 26.2359828948975 26.7266235351562 27.1513652801514 27.4931926727295 27.3598327636719 26.5273666381836 25.8201808929443 25.3295421600342 24.9511375427246 24.8023262023926 24.6966972351074 24.6966972351074 24.6105461120605 24.2687187194824 23.8950653076172 23.404426574707 23.112361907959 23.7518138885498 24.3033027648926 24.3033027648926 24.2885112762451 24.1396980285645 24 24 24 24 24 24 24 24 24 24 24 24.2975463867188 24.6393737792969 24.9444103240967 25.242036819458 25.1851234436035 25.0363121032715 25 25 25 25 25 25 24.9045333862305 24.7557220458984 24.6966972351074 24.6966972351074 24.6966972351074 24.6966972351074 24.2579460144043 23.425479888916 22.92724609375 22.778434753418 22.9178447723389 23.4084854125977 23.6966972351074 23.6966972351074 23.7524147033691 23.9012279510498 24 24 23.8537368774414 23.3630981445312 22.8724575042725 22.3818187713623 22 22 22 22 22 22 21.9633140563965 21.6214866638184 21.3269462585449 21.668773651123 22.0152149200439 22.5058536529541 22.9964923858643 23 23 23 23 23.1363925933838 23.2852039337158 23.1725883483887 23.0237770080566 23.2872123718262 23.6290378570557 23.6966972351074 23.6966972351074 23.8103771209717 23.9591884613037 23.751916885376 23.4100914001465 23.5383415222168 23.8801689147949 24 24 24.299919128418 24.7905597686768 25 25 25.3657341003418 26.049388885498 26.0537452697754 25.3700923919678 25 25 24.7936859130859 24.3030471801758 24 24 24.1688709259033 24.6595096588135 24.5950927734375 23.2719860076904 22.3033027648926 22.3033027648926 22.3033027648926 22.3033027648926 22.2747974395752 22.1259841918945 22
31 30.5658550262451 30.075216293335 30.3305568695068 30.7209625244141 30.7957096099854 30.7957096099854 30.4949474334717 30.1045398712158 30 30 30.2709693908691 30.6613750457764 30.5396366119385 30.1492309570312 30 30 30.2843742370605 30.7750129699707 31 31 30.7530689239502 30.2624282836914 30 30 30 30 30 30 30 30 30 30 29.9725017547607 29.8722686767578 29.7035007476807 29.3130931854248 29.0971622467041 29.5878009796143 30 30 29.9402809143066 29.4496421813965 29 29 29 29 29 29 29 29 29 28.5432472229004 28.0526084899902 28 28 28 28 28.4005889892578 28.891227722168 28.6961441040039 28.3057384490967 28.4932479858398 28.8836555480957 29 29 29 29 28.7557315826416 28.3653259277344 28.1454010009766 28.0451679229736 28 28 28 28 28 28 28 28 27.8451118469238 27.454704284668 27.3442821502686 27.7346878051758 27.8427886962891 27.3521480560303 27.2769813537598 28.2582588195801 28.8802299499512 28.389591217041 28 28 28 28 28.0129947662354 28.1132259368896 28.1594066619873 27.6687660217285 27.1781272888184 26.6874885559082 26.1968479156494 25.7062091827393 25.2155704498291 26.0650806427002 26.9461269378662 26.4452571868896 25.8543853759766 25.4440727233887 25.0536651611328 24.1536083221436 23.1723289489746 23 23 23.0788059234619 23.1790390014648 23.2042903900146 23.2042903900146 23.1331329345703 23.032901763916 23.0673313140869 23.1675643920898 23.4516506195068 23.8420581817627 24.0596828460693 24.1599159240723 24.4218578338623 24.8122634887695 25.2547054290771 25.7453441619873 26.1877746582031 26.5781803131104 27.0573558807373 27.6482276916504 27.6029186248779 26.621639251709 25.8201808929443 25.3295421600342 25 25 25 25 24.8510818481445 24.2602100372314 23.7122116088867 23.3218059539795 23.0685997009277 23.4590072631836 23.809497833252 23.9097309112549 24 24 24 24 24 24 24 24 24 23.905101776123 23.8048686981201 23.8867835998535 23.9870166778564 24.3398342132568 24.7302398681641 24.7957096099854 24.7957096099854 24.8753089904785 24.9755420684814 25 25 25 25 24.9318733215332 24.8316421508789 24.8600101470947 24.9602432250977 25.0604763031006 25.1607093811035 25.2042903900146 25.2042903900146 24.6871089935303 23.7058296203613 23.1552867889404 23.0550537109375 23.2211475372314 23.7117881774902 24 24 24 24 24 24 23.8537368774414 23.3630981445312 22.8985137939453 22.5081062316895 22.2042903900146 22.2042903900146 22.185884475708 22.0856513977051 22 22 21.958101272583 21.5676937103271 21.2312927246094 21.6217002868652 22.0152149200439 22.5058536529541 22.9964923858643 23 23 23 23 23 23 23 23 23.4122467041016 23.9028873443604 24 24 24 24 23.6439170837402 23.1532764434814 23.3373622894287 23.8280010223389 24 24 24.299919128418 24.7905597686768 25 25 25.5249538421631 26.506233215332 26.61208152771 25.8312683105469 25.454553604126 25.5547866821289 25.3222618103027 24.6311569213867 24.2042903900146 24.2042903900146 24.304162979126 24.5943374633789 24.3759346008301 23.0042495727539 22 22 22 22 22 22 22
31 30.5658550262451 30.075216293335 30.1196899414062 30.2610511779785 30.2881164550781 30.2881164550781 30.1792144775391 30.0378532409668 30 30 30.0981140136719 30.2394752502441 30.1953964233398 30.0540351867676 30 30 30.2843742370605 30.7750129699707 31 31 30.7530689239502 30.2624282836914 30 30 30 30 30 30 30 30 30 30 29.9041767120361 29.5548992156982 29.2547283172607 29.1133670806885 29.0971622467041 29.5878009796143 30 30 29.9402809143066 29.4496421813965 29 29 29 29 29 29 29 29 29 28.5432472229004 28.0526084899902 28 28 28 28 28.4005889892578 28.891227722168 28.8899784088135 28.7486171722412 28.8165111541748 28.9578723907471 29 29 29 29 28.9115543365479 28.7701930999756 28.5066757202148 28.157398223877 28 28 28 28 28 28 28 28 27.9439163208008 27.8025550842285 27.7625732421875 27.9039344787598 27.8427886962891 27.3521480560303 27.2769813537598 28.2582588195801 28.8802299499512 28.389591217041 28 28 28 28 28.045280456543 28.3945579528809 28.6669998168945 28.1763591766357 27.6857204437256 27.1950817108154 26.7044410705566 26.2138023376465 25.7231636047363 26.3293552398682 26.9613552093506 26.2114410400391 25.3715229034424 25.1607933044434 25.0194320678711 24.1536083221436 23.1723289489746 23 23 23.2746124267578 23.6238899230957 23.7118835449219 23.7118835449219 23.4639263153076 23.1146488189697 23.2346286773682 23.5839080810547 23.8014507293701 23.9428119659424 24.2079753875732 24.5572528839111 24.7906627655029 24.9320240020752 25.2547054290771 25.7453441619873 26.0679912567139 26.2093524932861 26.6600437164307 27.4999618530273 27.6029186248779 26.621639251709 25.8201808929443 25.3295421600342 25 25 25 25 24.7883167266846 23.9483985900879 23.2578830718994 23.1165218353271 23.0248394012451 23.1662006378174 23.3361625671387 23.6854400634766 24 24 24 24 24 24 24 24 24 23.6693115234375 23.3200340270996 23.6054763793945 23.9547538757324 24.1230487823486 24.2644100189209 24.2881164550781 24.2881164550781 24.5654945373535 24.9147720336914 25 25 25 25 24.7626037597656 24.4133262634277 24.5121841430664 24.8614635467529 25.2107410430908 25.5600185394287 25.7118835449219 25.7118835449219 25.1947021484375 24.2134227752686 23.5411243438721 23.1918468475342 23.2211475372314 23.7117881774902 24 24 24 24 24 24 23.8537368774414 23.3630981445312 22.9632530212402 22.821891784668 22.7118835449219 22.7118835449219 22.6477432250977 22.2984657287598 22 22 21.9848289489746 21.8434677124023 21.7216606140137 21.8630218505859 22.0152149200439 22.5058536529541 22.9964923858643 23 23 23 23 23 23 23 23 23.4122467041016 23.9028873443604 24 24 24 24 23.6439170837402 23.1532764434814 23.3373622894287 23.8280010223389 24 24 24.299919128418 24.7905597686768 25 25 25.5249538421631 26.506233215332 26.8595390319824 26.5768165588379 26.5839653015137 26.9332447052002 26.6355953216553 25.4463996887207 24.7118835449219 24.7118835449219 24.6403217315674 24.4324054718018 23.9445571899414 22.8219165802002 22 22 22 22 22 22 22
